# .PCD v0.7 - Point Cloud Data file format
VERSION 0.7
FIELDS x y z normal_x normal_y normal_z
SIZE 4 4 4 4 4 4
TYPE F F F F F F
COUNT 1 1 1 1 1 1
WIDTH 715
HEIGHT 1
VIEWPOINT 0 0 0 1 0 0 0
POINTS 715
DATA ascii
-81.220627 -16.547874 29.040319 -0.93989116 -0.20101373 0.27604017
-51.734814 -18.227655 73.208786 -0.60570115 -0.28978887 0.74104553
-81.013641 -19.149828 27.960758 -0.93072021 -0.22314547 0.28976884
-54.988239 -16.363474 71.758247 -0.65075368 -0.24434318 0.71889925
-84.471794 -13.946349 14.934114 -0.95663011 -0.2753768 0.095007546
-83.678963 -14.943969 17.401957 -0.95266181 -0.26391444 0.15094599
-79.184776 -15.784511 36.141766 -0.9013924 -0.22337335 0.37093943
-80.078712 -16.354965 33.506813 -0.92974955 -0.20012663 0.30905518
-81.712654 -13.618173 30.007687 -0.93470502 -0.22988749 0.2710689
-83.848671 -13.805394 20.855677 -0.95734745 -0.28004131 0.071152441
-66.761971 -14.688391 58.985844 -0.75054502 -0.18948051 0.63307124
-78.960793 -12.456446 38.662746 -0.83538437 -0.19485809 0.51396817
-85.566833 -10.503832 14.127062 -0.97347456 -0.20323701 0.10508114
-82.443794 -13.913884 26.815504 -0.94915044 -0.17734371 0.26012033
-84.253281 -12.285989 21.894636 -0.96271968 -0.19528915 0.18717079
-84.791031 -12.78048 18.310158 -0.95581084 -0.23473974 0.17698295
-80.023209 -13.273387 35.033531 -0.92014754 -0.21721451 0.32580119
-81.868645 -11.451505 31.59799 -0.91941887 -0.22810231 0.32037184
-84.467934 -8.7184553 20.450922 -0.97423011 -0.20184572 0.10066831
-79.978172 -9.5284357 38.29771 -0.89137065 -0.23175678 0.38954732
-59.518921 -13.902749 67.508675 -0.64769018 -0.21667132 0.73044574
-86.219673 -7.0123849 12.152665 -0.96875912 -0.22079745 0.11293443
-83.121101 -8.8232899 29.311481 -0.93637031 -0.2383049 0.25772366
-84.994133 -8.5357075 23.597321 -0.93309617 -0.30045733 0.1976286
-50.771046 2.3209693 84.532516 -0.51596278 -0.79745293 0.31281179
-81.195328 -9.3676157 34.5187 -0.92093629 -0.24792008 0.30068591
-83.039665 -10.522346 26.432238 -0.92110217 -0.27748755 0.27307752
-90.26786 10.069122 20.596569 -0.88731623 0.43721518 0.14667207
-47.674427 -12.100785 77.461349 -0.5282591 -0.17486608 0.83088154
-50.872471 -12.849875 75.604691 -0.53820759 -0.15759932 0.82794631
-85.365898 -9.8434515 17.265772 -0.97897345 -0.14388078 0.14460035
-85.756607 -6.4985027 20.5569 -0.94806385 -0.31407252 0.050332241
-85.549995 -6.9271646 17.65675 -0.94259673 -0.31516027 0.11038731
-84.291374 -6.4296384 27.931812 -0.92313963 -0.26147899 0.28185466
-86.91996 -4.1790009 18.114408 -0.93701905 -0.32070622 0.13835698
-79.775909 -6.254631 39.479828 -0.84364963 -0.26569888 0.46653974
-81.452934 -6.3274961 37.156277 -0.89031303 -0.27301404 0.36442569
-65.90419 -0.99868041 65.805 -0.58757269 -0.40406293 0.70106453
-82.973656 -5.078042 32.721088 -0.91413796 -0.30749372 0.26419583
-86.157684 -3.1406512 22.060627 -0.94956988 -0.28752139 0.12509364
-87.181984 -3.9950883 15.064716 -0.93435133 -0.34980437 0.068003722
-79.905838 -3.6455932 42.513474 -0.89482325 -0.28446093 0.34405413
-81.43808 -1.4931856 40.233208 -0.81197602 -0.41473478 0.41071886
-83.890808 -2.3450384 35.563 -0.8965137 -0.31299073 0.31352836
-61.77499 -13.747376 65.581268 -0.73114401 -0.20769179 0.64984035
-79.017876 0.45569897 47.132423 -0.69054627 -0.63389784 0.34830931
-84.777199 -4.2437224 27.261856 -0.90105581 -0.30843556 0.30490327
-87.802376 -0.99543226 14.828528 -0.92972285 -0.36786801 0.016983882
-86.138657 -3.8380897 24.856316 -0.94075435 -0.28052974 0.19048432
-66.115364 -11.787289 61.353458 -0.75229359 -0.22409688 0.61954415
-80.479744 0.17916934 43.648949 -0.73377287 -0.57440865 0.36281127
-82.228653 -2.7548609 37.50069 -0.86798167 -0.34940207 0.3528825
-84.225822 0.44556564 34.654736 -0.86902291 -0.40743309 0.28070903
-84.920845 -0.32328588 32.22995 -0.89461786 -0.3812446 0.23304819
-87.76371 -1.3074026 17.830769 -0.93782544 -0.32660326 0.11753178
-88.641479 0.85089117 17.845728 -0.83986408 -0.53416187 0.096433714
-78.210854 1.8804708 52.284515 -0.51513749 -0.8019641 0.30246803
-83.019913 1.4907624 42.032661 -0.72721082 -0.58427227 0.36026406
-86.28373 0.41130924 28.814173 -0.8521108 -0.46579707 0.23862156
-5.5265236 5.2630849 -84.44738 -0.092114657 -0.14750868 -0.98476201
-46.437679 -10.604186 78.896873 -0.57096088 -0.23012732 0.78806418
-83.633034 0.15173534 38.312828 -0.8332991 -0.49012095 0.25572276
-87.425156 -0.16979457 22.809011 -0.90178442 -0.40533903 0.14995025
-89.000038 0.80992526 13.425649 -0.83602315 -0.54855895 -0.012182084
-88.614784 2.7727633 16.393244 -0.95976859 -0.16069426 -0.23026425
-88.755859 1.7558439 9.9411011 -0.72543263 -0.67983156 -0.10759383
-89.797546 2.4586725 8.3851004 -0.54064488 -0.84105927 -0.017954877
-80.84256 2.4428906 49.293621 -0.56933624 -0.77362007 0.27815151
-86.211861 2.475122 34.118755 -0.72727948 -0.63004655 0.27222389
-88.04985 2.6272027 30.556505 -0.7003004 -0.69295621 0.17143795
-88.334824 2.5698175 25.829506 -0.82103169 -0.5496009 0.15442081
-89.260109 2.8767893 22.424746 -0.76505131 -0.61443532 0.19278413
-90.403603 2.706038 15.046922 -0.82349968 -0.5622921 0.075337745
-82.788857 2.4836135 44.497429 -0.671323 -0.6848802 0.28331
-84.651131 2.4542394 38.844872 -0.82221437 -0.52083457 0.22955364
-91.284103 2.8483756 18.61762 -0.6117754 -0.78933084 -0.05184162
-66.105118 -7.5321679 61.006378 -0.82781214 -0.15526271 0.53909248
-53.371998 -11.950347 73.706383 -0.63540024 -0.20951858 0.74321496
-57.708317 -11.668983 69.936455 -0.64937431 -0.22445756 0.7265892
-64.131523 -9.5395985 64.050476 -0.76326507 -0.10240459 0.63791817
-49.945164 -9.594429 76.862839 -0.53469062 -0.23964001 0.81035715
-57.162693 -8.8195372 71.230164 -0.66838616 -0.21637477 0.71164733
-54.613811 -7.743289 74.45842 -0.63105351 -0.15943243 0.759179
-60.424599 -9.6251497 68.209167 -0.68561864 -0.19536756 0.70125508
-70.999153 2.4055703 64.617821 -0.48547474 -0.78164244 0.39159852
-10.91744 0.68500513 95.164841 0.031497482 -0.48482096 0.87404603
13.856817 -16.123798 -81.360901 0.086995251 -0.21415731 -0.9729175
48.977409 -10.02193 -69.866943 0.51917124 -0.22954398 -0.82326829
43.767525 -15.842394 -71.377235 0.43405375 -0.24737746 -0.86625731
22.210661 -14.081342 -79.642273 0.18159764 -0.17044292 -0.96848929
20.171501 -13.694649 -80.628983 0.23970786 -0.12331969 -0.96298099
29.178055 -15.84052 -77.840843 0.32396847 -0.27996263 -0.9036954
32.183784 -17.367537 -76.484573 0.30099741 -0.15703194 -0.94060695
14.021221 -13.328995 -81.637192 0.10825158 -0.11441238 -0.98751777
33.191189 -13.499272 -76.640236 0.3635287 -0.18190652 -0.91365033
11.30945 -12.452658 -82.090096 0.086463504 -0.17615981 -0.98055691
24.910099 -15.217178 -79.472519 0.23114119 -0.21895008 -0.94796336
37.398209 -14.389286 -75.062439 0.36884132 -0.18246497 -0.91140693
88.066177 -11.743237 26.142946 0.94389135 -0.21518926 0.250525
67.04303 -10.59098 -54.920479 0.70826727 -0.18592535 -0.6810208
37.861233 -10.997458 -75.590309 0.3330583 -0.18833755 -0.92390537
-0.86426383 -59.875671 -66.457069 -0.055014759 -0.66793799 -0.74218071
-18.533958 -59.953442 -63.179028 -0.23518395 -0.67199737 -0.70221657
-15.201997 -60.909157 -63.269638 -0.16865075 -0.6929099 -0.70102268
-7.2791495 -57.437336 -68.087418 -0.08860378 -0.57847029 -0.81087703
-10.85355 -57.820004 -67.031212 -0.15715408 -0.60473859 -0.78076494
-15.711069 -57.583775 -66.0205 -0.1815577 -0.6291399 -0.75579089
-8.8455315 -53.793644 -69.819717 -0.13160489 -0.52511889 -0.84079146
-26.016478 -52.889675 -65.958855 -0.35485074 -0.50515747 -0.78670001
-22.195887 -53.327316 -67.049126 -0.28506064 -0.50869942 -0.81238258
-17.646811 -55.198517 -67.464722 -0.22597097 -0.56997359 -0.78997922
12.656952 4.6181512 -86.40834 0.017108474 -0.7508024 -0.66030532
-29.691938 -51.179256 -65.264465 -0.37611043 -0.44480026 -0.81283063
-14.750707 -51.902721 -70.410294 -0.15868685 -0.50547308 -0.84812462
-10.559882 -48.969852 -72.253761 -0.13637049 -0.37784505 -0.91577083
-12.379913 -51.772346 -70.645309 -0.10863914 -0.49030933 -0.86475092
-25.843212 -49.704903 -68.103371 -0.3367064 -0.45418787 -0.82482857
-7.8718109 -47.820988 -73.243591 -0.1304049 -0.37120044 -0.91935021
-17.644693 -50.745869 -70.303856 -0.26526794 -0.43207699 -0.8619411
-28.677551 -46.099541 -68.732208 -0.37806457 -0.36690804 -0.84996808
-29.16564 -47.766708 -67.314835 -0.40324655 -0.44799775 -0.79792875
-21.87516 -49.719448 -69.393852 -0.28095761 -0.40824938 -0.8685593
-24.851856 -47.721813 -69.179314 -0.30195478 -0.37048015 -0.8783893
-24.93103 -44.370495 -70.466064 -0.2900067 -0.29284573 -0.91111881
-13.734992 -47.976471 -72.411484 -0.15058722 -0.34950197 -0.92475498
-3.0229979 -43.569725 -75.25692 -0.059083864 -0.30436745 -0.95072061
-11.942829 -45.681698 -73.102669 -0.16753578 -0.34130764 -0.92490047
-36.358906 -42.112148 -65.775162 -0.46870595 -0.29091015 -0.83407795
-23.259487 -44.862621 -70.788231 -0.27257732 -0.31822795 -0.90798271
-16.560242 -45.112843 -72.637726 -0.2327859 -0.30992097 -0.92182416
-31.471882 -44.523888 -67.659569 -0.44206885 -0.30179954 -0.8446846
-19.106953 -48.210098 -70.748001 -0.26712477 -0.32949343 -0.90558177
-34.008541 -41.489822 -67.555229 -0.46615931 -0.29822829 -0.83291984
-28.77593 -43.111797 -69.477425 -0.36380506 -0.25188112 -0.89677292
-9.2208252 -44.003189 -74.581535 -0.13907595 -0.31338426 -0.93938714
-19.809668 -40.491425 -73.279808 -0.26723844 -0.28077185 -0.92181927
-6.403161 -40.157505 -75.841362 -0.11820841 -0.24090017 -0.96332443
-35.109592 -38.861347 -67.466682 -0.49670768 -0.24148376 -0.83364695
-24.619514 -40.897728 -71.583466 -0.30090269 -0.28256872 -0.91083074
-13.674965 -42.186356 -74.306641 -0.17896657 -0.2812537 -0.9427976
-30.400835 -39.882698 -69.726807 -0.37527224 -0.2855072 -0.88184834
-16.699139 -40.721664 -73.865524 -0.21896994 -0.27570766 -0.93596876
-10.49351 -38.453743 -75.72023 -0.13071044 -0.24536887 -0.96057737
-26.265865 -37.685524 -72.248901 -0.32501337 -0.24819353 -0.91256028
-36.613754 -34.955109 -67.729576 -0.48571184 -0.25235626 -0.83689922
-3.7045555 -37.935356 -76.714386 -0.091452591 -0.24920741 -0.96412247
0.13027112 -36.220909 -77.487175 -0.045052271 -0.23540677 -0.9708522
45.212803 -10.701633 -71.919327 0.50378042 -0.21045977 -0.83780193
-32.542923 -37.289082 -69.673126 -0.45928243 -0.23699728 -0.85609108
-21.665321 -36.251698 -73.813148 -0.27802509 -0.26979756 -0.92190635
-29.84383 -35.68187 -71.163033 -0.38780913 -0.21052615 -0.89737552
-32.099773 -31.914623 -70.962196 -0.41554368 -0.24743812 -0.87527013
-29.549664 -32.06237 -72.29129 -0.36553508 -0.22707319 -0.90267485
-25.905981 -32.478634 -73.303543 -0.3410973 -0.21792398 -0.91441882
-18.128939 -35.985535 -75.069061 -0.22079946 -0.26546559 -0.93849647
-19.212257 -31.352171 -76.110535 -0.26538733 -0.24596538 -0.93223959
-36.171345 -32.54253 -68.819199 -0.48082405 -0.22697966 -0.84692889
-22.280592 -32.432697 -74.756477 -0.31335589 -0.24008042 -0.91878694
-36.42939 -29.527746 -69.81752 -0.51612455 -0.22375543 -0.82677019
-16.703207 -28.904854 -77.300064 -0.16978677 -0.23959559 -0.95591128
-34.902359 -27.667009 -70.974342 -0.44448897 -0.20260678 -0.87257099
-31.955061 -27.697884 -72.186241 -0.38413996 -0.19412625 -0.90263587
-27.818228 -27.829062 -73.881882 -0.35433957 -0.23615961 -0.904805
-11.823739 -27.677589 -78.408638 -0.11191551 -0.23069583 -0.96656835
-21.57967 -28.107416 -75.940392 -0.31033477 -0.21391264 -0.92624706
-23.975525 -29.370865 -75.01815 -0.32718375 -0.226551 -0.91740149
-23.628296 -24.309418 -76.257454 -0.28319412 -0.22054206 -0.93336076
-28.623072 -25.499487 -74.521843 -0.37067133 -0.28199765 -0.88491809
-37.999489 -25.21682 -69.304352 -0.57054448 -0.21500187 -0.79262424
-33.450233 -23.087105 -72.925827 -0.33736226 -0.26495138 -0.90332031
-19.456762 -25.863316 -77.342194 -0.24602617 -0.18905978 -0.9506458
-31.142828 -24.444107 -73.066872 -0.42008072 -0.2441721 -0.87402064
-17.155012 -22.601967 -78.029366 -0.21792969 -0.1785495 -0.95949298
-38.848076 -23.072575 -70.371574 -0.48393676 -0.30216226 -0.82128143
-35.362556 -24.524239 -71.454865 -0.45391563 -0.23770577 -0.85875297
-26.494003 -22.673899 -76.079369 -0.28697786 -0.16136706 -0.94424808
-14.74989 -25.293617 -78.480972 -0.20187636 -0.17182606 -0.96422076
-48.736839 -21.551714 -63.934204 -0.5271185 -0.24056584 -0.81503016
-36.017262 -20.937075 -72.14315 -0.50030601 -0.19619881 -0.84332669
-20.910925 -22.308462 -77.589577 -0.25876817 -0.19193767 -0.94667786
-42.207821 -18.643476 -68.85096 -0.50817645 -0.16056426 -0.84615356
-29.04549 -21.299099 -75.560211 -0.43061295 -0.19112906 -0.88206697
-34.651329 -18.875629 -73.511383 -0.44396341 -0.11467966 -0.88867599
-31.390585 -21.362103 -73.727318 -0.38178349 -0.23370256 -0.89421719
-9.6648922 -21.398205 -80.24427 -0.15141213 -0.22868779 -0.96165287
-37.747314 -19.900333 -71.113182 -0.45389992 -0.11417109 -0.883708
-20.389374 -19.837269 -78.232834 -0.25039002 -0.22316 -0.94207448
-29.020136 -16.765987 -75.748306 -0.32431933 -0.17573044 -0.92948145
-15.770944 -20.256447 -79.189804 -0.2143636 -0.24314843 -0.94600594
-32.160503 -17.743916 -74.436852 -0.42096409 -0.17005089 -0.89099485
-22.397017 -17.194004 -78.421875 -0.35328388 -0.21256146 -0.91104788
-46.004349 -13.492317 -67.587654 -0.57340205 -0.15346937 -0.80477154
-35.683842 -16.798891 -72.302406 -0.44196728 -0.15804064 -0.88299948
-23.800451 -18.671329 -77.063705 -0.297474 -0.19752124 -0.93407416
-10.46051 -17.817463 -80.477501 -0.10062578 -0.15956645 -0.98204529
-32.652084 -15.044373 -75.164635 -0.46519887 -0.2146191 -0.85879493
-13.960828 -18.919683 -80.081337 -0.17603256 -0.17521533 -0.96866506
-25.895844 -16.89481 -77.472145 -0.31044301 -0.25658411 -0.91530854
-19.965069 -15.154317 -79.452065 -0.20730026 -0.17279814 -0.96289527
20.468691 -10.596979 -80.646416 0.19777599 -0.20741943 -0.95805103
-16.075121 -14.334724 -80.422295 -0.22938851 -0.1481176 -0.961999
23.169893 -10.217401 -80.628395 0.21504399 -0.15021083 -0.96498334
-37.078663 -13.183017 -73.229721 -0.34562495 -0.229422 -0.90989506
-34.353241 -13.383229 -73.704803 -0.48448375 -0.18844239 -0.85426277
-31.877169 -12.027067 -76.019012 -0.40713167 -0.19605853 -0.892079
-17.632767 -16.54027 -79.491341 -0.22435355 -0.19951768 -0.95386493
33.836933 -9.3487406 -77.202263 0.36105791 -0.17084302 -0.9167605
-40.231152 -12.703777 -71.497513 -0.50719136 -0.18587324 -0.84155101
-22.237093 -12.230666 -79.184952 -0.26930743 -0.16255657 -0.94923592
-29.749802 -10.047146 -77.014854 -0.38892245 -0.15874779 -0.90749013
-11.129057 -12.724257 -81.27301 -0.072779126 -0.18887277 -0.97930092
-27.59383 -13.56657 -77.208107 -0.35285786 -0.19315957 -0.91552216
-37.030685 -9.8187046 -73.797798 -0.41721037 -0.22289404 -0.88105267
-33.45892 -8.6654243 -75.668465 -0.38432762 -0.17742342 -0.90598744
-17.475784 -9.4550066 -81.099922 -0.18939139 -0.2132391 -0.95846748
-14.988971 -9.3467255 -80.938782 -0.22091113 -0.1791835 -0.95869267
-43.625248 -7.6827106 -70.462662 -0.53463024 -0.20649639 -0.81946915
-24.197783 -13.951001 -78.173004 -0.29237658 -0.19777519 -0.93562859
-18.480719 -11.738839 -80.199318 -0.20100401 -0.17250966 -0.96428096
-22.509285 -8.8522654 -79.725243 -0.26402214 -0.16302477 -0.95063931
-26.73732 -8.8925457 -78.696861 -0.31389645 -0.16530433 -0.93495643
-12.912562 -10.344027 -81.885811 -0.17414932 -0.15140215 -0.97301048
-9.1258221 -8.2213163 -82.380333 -0.14090994 -0.20830376 -0.96786046
-6.5345607 -5.6741633 -83.566025 -0.19982578 -0.23904103 -0.95022577
-44.101391 -4.1916761 -70.975296 -0.52804053 -0.23886512 -0.81493348
-41.085262 -4.3658457 -73.218582 -0.49788606 -0.20562939 -0.84251177
-25.154869 -6.0841136 -79.261208 -0.28343993 -0.15349297 -0.94662642
-14.763353 -5.5745182 -82.239502 -0.1894971 -0.20392364 -0.96047181
15.775923 -12.316963 -81.591583 0.16633549 -0.1658518 -0.97202146
-35.831619 -6.3394175 -75.230675 -0.39583865 -0.22228326 -0.89101183
-33.225605 -3.9454105 -76.953461 -0.38224703 -0.17790461 -0.90677297
-12.470934 -4.9331474 -82.591454 -0.15049532 -0.17833471 -0.97239286
-20.945133 -5.9334173 -80.714287 -0.28955105 -0.1715724 -0.94165975
-36.969978 -4.1726151 -75.229485 -0.40802884 -0.17861365 -0.89532655
-29.859171 -4.8915243 -77.946533 -0.35506529 -0.18917498 -0.9155007
-41.387836 -0.94509578 -73.542694 -0.45048043 -0.086269133 -0.88860852
-9.2671785 -4.6391287 -83.515724 -0.21092674 -0.27156952 -0.93902075
-39.071289 -0.93907326 -74.837769 -0.44845811 -0.14524126 -0.88192415
-34.968025 -0.73981178 -76.572861 -0.38181534 -0.17015381 -0.90844083
-17.655577 -3.980026 -81.926414 -0.2274088 -0.17659377 -0.95765334
-30.004482 -1.5782037 -78.720924 -0.36992693 -0.17046593 -0.91328824
-10.571347 -1.8228905 -83.751915 -0.25496197 -0.19745696 -0.94657546
-26.930424 -2.6209159 -79.689392 -0.28663793 -0.19376557 -0.93823963
-23.553654 -2.3900709 -80.45237 -0.28824222 -0.17404155 -0.94160813
-24.619034 1.301501 -80.865234 -0.22604334 -0.3047727 -0.92521244
-21.224077 -0.45312384 -81.771149 -0.27617365 -0.16618568 -0.94663107
-16.415836 -0.43513751 -82.925446 -0.19182049 -0.17668083 -0.96539563
-13.949183 2.9763384 -83.277626 0.024571162 -0.27944621 -0.95984691
9.2447033 4.0490413 -86.272263 0.23728766 -0.46442696 -0.85323042
28.723917 -9.7307901 -78.71209 0.2776596 -0.11680843 -0.95355177
31.067993 -12.046296 -78.274895 0.32665387 -0.13885635 -0.9348883
11.831878 -8.9663534 -82.795921 0.097108617 -0.17228168 -0.98024946
16.929546 -8.7529135 -82.363403 0.18166037 -0.20674349 -0.96138263
20.440027 -5.9355583 -82.12487 0.18706781 -0.22902296 -0.95527697
39.928577 -8.6455879 -75.354767 0.45725685 -0.1531845 -0.87604254
41.171036 3.7876256 -79.0644 0.32444403 -0.64159065 -0.69505215
15.264412 -6.63447 -82.678604 0.10654393 -0.18413891 -0.9771086
34.59885 -5.092957 -77.886314 0.35603708 -0.20296733 -0.91216332
16.430992 4.5224853 -86.624397 0.076831877 -0.86373794 -0.49804983
42.448826 -7.5898552 -73.808403 0.41669196 -0.1235907 -0.90060717
19.346296 3.9321847 -84.186775 0.16520399 -0.39441851 -0.90395892
12.346285 -4.9123545 -83.294525 0.037169501 -0.15971982 -0.98646241
25.928505 -6.8054042 -80.274368 0.28635746 -0.2493483 -0.92510802
17.795267 -5.0896707 -82.597458 0.16120479 -0.1695621 -0.97224569
23.802633 -7.5270319 -80.995491 0.29748759 -0.2072283 -0.93196434
30.211969 -8.2212582 -78.897736 0.29522294 -0.18945855 -0.93645555
42.181141 -4.8729339 -74.343124 0.45950103 -0.12268906 -0.87966251
31.535496 -5.2513094 -79.00737 0.33694869 -0.24154295 -0.91001236
46.336735 -4.0575156 -72.53019 0.45441025 -0.087441534 -0.8864904
20.227444 -2.2128024 -83.011253 0.1693847 -0.10301332 -0.98015153
24.734543 -3.5997996 -81.735901 0.27104938 -0.16640344 -0.94807285
15.977336 -2.71135 -83.821571 0.12102212 -0.15293638 -0.98079771
23.210518 0.19198154 -82.193672 0.21120542 -0.10026086 -0.97228593
29.923143 -3.700222 -79.987251 0.2822243 -0.19510821 -0.93929881
14.440792 -0.19937819 -83.781616 0.090039164 -0.157897 -0.98334193
10.75352 -0.2693187 -84.277367 0.14211594 -0.22901501 -0.96299285
38.287781 -2.0745747 -76.910126 0.38714686 -0.18054286 -0.90416908
52.917812 -10.294133 -67.108658 0.53534067 -0.21727256 -0.81621259
17.479134 -0.56814551 -83.344833 0.18720382 -0.14225516 -0.97196621
29.981756 0.012177239 -80.378517 0.31808618 -0.11871704 -0.9405995
33.65554 -1.5549359 -79.39212 0.28779829 -0.16280739 -0.94375092
32.373943 0.78845698 -79.532059 0.34802708 -0.051807128 -0.93605191
24.871048 -68.190674 -47.971626 0.16945839 -0.96353745 -0.20707366
9.7354317 -66.167099 -58.42564 0.063787252 -0.93615991 -0.34573954
17.835264 -66.306427 -56.883274 0.071385302 -0.86677819 -0.49355838
15.322568 -65.653732 -58.495296 0.1424911 -0.86877042 -0.47427222
2.6468797 -62.203407 -64.24395 -0.016681321 -0.71397418 -0.69997329
-11.727897 -59.904854 -64.931328 -0.15104745 -0.67010707 -0.72673315
-2.5544748 -63.106274 -63.056526 -0.048273064 -0.76281381 -0.64481372
13.649547 -63.007607 -62.422501 0.10369161 -0.71191823 -0.694565
27.18189 -63.50153 -58.328976 0.22905365 -0.77193463 -0.59300202
-6.9773335 -60.689598 -65.004906 -0.11036535 -0.66891903 -0.7350964
17.484322 -62.088089 -62.932331 0.12791625 -0.74296963 -0.6569882
19.542562 -60.492672 -64.038086 0.20751761 -0.65890664 -0.72303426
13.372827 -60.988098 -64.473389 0.10294281 -0.68515337 -0.72108787
3.6448438 -58.51762 -67.609802 -0.014283315 -0.62861484 -0.77758557
27.627108 -61.304722 -60.495781 0.24789079 -0.6746999 -0.69521958
19.417435 -57.884903 -66.134369 0.1897137 -0.59932965 -0.77769709
12.325757 -58.75629 -66.699059 0.11698254 -0.65170538 -0.7493965
31.503769 -59.645332 -60.680744 0.30210507 -0.62794918 -0.71722543
5.7403755 -56.546589 -69.138329 0.035003848 -0.56526208 -0.82416838
23.218761 -58.285599 -65.103859 0.21627206 -0.60841227 -0.7635842
25.985767 -57.484879 -64.592735 0.27909434 -0.61745983 -0.73542482
16.376863 -57.718338 -67.143967 0.14579767 -0.60419208 -0.78338689
31.429176 -55.228588 -64.164604 0.3202478 -0.52689511 -0.78728831
6.540071 -53.682682 -70.931519 0.016850915 -0.52979636 -0.84795743
24.747524 -53.707184 -67.70533 0.24801038 -0.52378684 -0.81494671
28.19874 -55.466087 -65.184059 0.29659632 -0.55796844 -0.77504969
1.2472051 -51.983677 -71.924225 -0.0044822879 -0.47512582 -0.87990654
20.170277 -54.007874 -68.668518 0.21745473 -0.52833122 -0.82071894
4.3741212 -51.0686 -72.305206 0.0010627699 -0.44875196 -0.89365572
35.515774 -49.393913 -65.737572 0.37725371 -0.4298937 -0.82028717
18.638201 -52.428898 -70.082024 0.18203029 -0.49305794 -0.85074019
30.628033 -51.107658 -67.259834 0.3339856 -0.46142253 -0.82191414
13.981648 -51.554707 -71.349297 0.15156254 -0.44364342 -0.88329452
25.418379 -49.592583 -69.844643 0.27057612 -0.43587545 -0.85837126
-0.99734503 -47.875446 -73.977074 -0.060524944 -0.3652845 -0.92892623
17.435543 -48.4081 -72.339111 0.17134678 -0.39372984 -0.90311515
4.782342 -47.003654 -74.225754 0.021103455 -0.34947541 -0.93670785
29.379257 -46.525589 -69.704811 0.33353165 -0.33590737 -0.88086492
1.690716 -47.98679 -73.860359 0.010005578 -0.36666825 -0.93029797
22.17441 -48.662823 -71.260803 0.21457367 -0.37766528 -0.90073699
11.466031 -45.173542 -74.43988 0.075159959 -0.32122439 -0.9440158
13.801171 -47.400787 -73.284843 0.12781331 -0.3933222 -0.91047323
15.560979 -45.357502 -73.93502 0.16127965 -0.31961894 -0.93371975
36.882183 -45.80838 -66.629631 0.40528888 -0.32700029 -0.85370475
7.679173 -45.24865 -74.524651 0.062891655 -0.31354627 -0.94748789
19.361143 -44.881634 -73.081108 0.21878791 -0.30332857 -0.92742848
-1.181662 -41.35931 -76.082916 -0.023294678 -0.28643185 -0.95781738
2.7454679 -43.669884 -75.156364 -0.0043575391 -0.30994794 -0.9507435
17.195566 -42.796097 -74.373619 0.19089326 -0.28032425 -0.94073272
40.409115 -44.829918 -65.570663 0.45494413 -0.31315801 -0.83364135
25.213873 -44.952759 -71.812126 0.25693464 -0.31252205 -0.91450232
24.489614 -41.420769 -72.92643 0.22850047 -0.28723896 -0.93020499
27.38089 -42.126148 -72.035736 0.30920348 -0.30377847 -0.90117252
31.196201 -42.17572 -70.492546 0.35960129 -0.31445393 -0.87852466
34.124645 -42.614014 -69.073624 0.39445996 -0.30267075 -0.86763573
11.832331 -42.568909 -75.175781 0.087520011 -0.28196681 -0.95542401
1.2504735 -40.155418 -76.381889 0.0061373995 -0.26840836 -0.96328562
20.703226 -41.410812 -73.970039 0.22174662 -0.28172392 -0.93352032
6.1977277 -41.999275 -75.825218 0.040237628 -0.28647047 -0.95724368
28.732147 -39.313335 -72.564003 0.30256703 -0.25319979 -0.91888142
32.502743 -38.502716 -71.188377 0.37442067 -0.22255825 -0.90015382
7.0148988 -38.127789 -76.689461 0.058642797 -0.26697764 -0.9619168
10.948109 -39.246548 -76.131523 0.052470442 -0.25144371 -0.96644866
14.819658 -38.46373 -76.178322 0.14168631 -0.2660048 -0.95350218
22.990555 -38.642494 -74.236794 0.24514277 -0.24976557 -0.93676156
2.5791543 -35.341629 -77.648422 0.0031871554 -0.24313755 -0.96998656
4.805419 -34.230827 -78.118904 0.032120619 -0.24221621 -0.9696905
9.3271837 -33.965397 -77.768661 0.058648575 -0.2408098 -0.9687987
17.968811 -38.744671 -75.15976 0.2070377 -0.26147735 -0.9427433
22.441597 -35.021278 -75.295021 0.24075386 -0.26047412 -0.93498176
16.744289 -35.078011 -76.48494 0.22052099 -0.25167686 -0.94235301
26.970943 -34.254803 -74.151802 0.30070266 -0.26245019 -0.91689575
11.644969 -35.884495 -76.925056 0.054971833 -0.27507383 -0.95985031
29.849182 -36.960041 -72.519157 0.30985877 -0.19962689 -0.92958945
32.398468 -33.700375 -72.376099 0.3441653 -0.25765651 -0.90286398
25.655048 -32.371742 -75.23011 0.32382613 -0.26239812 -0.90900147
20.019276 -34.924446 -76.035133 0.19450487 -0.24543424 -0.94969994
4.5199471 -31.392023 -78.454613 0.0041303388 -0.19139783 -0.98150384
19.994886 -31.134277 -76.68177 0.18725197 -0.24143122 -0.9521805
36.319447 -32.331654 -71.471588 0.39303818 -0.26993033 -0.87900996
23.086105 -30.545486 -76.606506 0.2251725 -0.22076298 -0.9489789
13.949386 -33.277828 -77.658928 0.11283949 -0.24803868 -0.96215594
12.086246 -28.246128 -78.928238 0.08128459 -0.21590193 -0.97302574
32.442242 -30.301029 -73.385696 0.34118477 -0.26730382 -0.90118903
16.886311 -30.718447 -77.791443 0.20367661 -0.22173423 -0.95359838
25.917545 -29.332039 -75.699028 0.27100876 -0.21455128 -0.93836135
35.819908 -28.630754 -72.568443 0.39266515 -0.23221327 -0.88988268
8.1691666 -27.897245 -79.204277 0.070829019 -0.24321836 -0.96738207
28.992891 -28.454777 -75.404137 0.28042299 -0.27011383 -0.92108709
19.180498 -25.485516 -78.428062 0.18941239 -0.23453234 -0.95347655
30.502068 -24.829212 -75.5979 0.32022831 -0.19125396 -0.92783386
34.007698 -27.2584 -73.721901 0.38100156 -0.21003298 -0.90040213
38.418732 -24.443821 -72.734688 0.4350265 -0.22864884 -0.87090278
-1.6139057 -22.901997 -80.621277 -0.36348045 -0.35089627 -0.86299127
0.74496728 -22.301033 -80.708611 0.14882837 -0.061515357 -0.98694777
11.69399 -24.155825 -79.673676 0.10451 -0.23536293 -0.96627218
14.932433 -24.779251 -79.658401 0.10640092 -0.21160461 -0.97154641
16.891571 -27.061983 -78.462387 0.20785967 -0.24445648 -0.94711953
22.162321 -25.033455 -78.337036 0.18965456 -0.24372374 -0.95112038
23.781872 -26.657707 -76.864197 0.23456012 -0.28353685 -0.92983246
25.403599 -25.24675 -77.248352 0.27664664 -0.20182018 -0.93953985
6.9474869 -24.560719 -80.470657 -0.087883942 -0.21466337 -0.97272611
-1.8271831 -19.992903 -81.094345 -0.42038271 0.092892148 -0.90257931
13.166502 -21.756126 -80.089378 0.10130817 -0.18295085 -0.97788841
22.250999 -22.000969 -78.36274 0.21939848 -0.16288523 -0.9619422
25.825777 -21.002945 -78.180473 0.25819218 -0.13264932 -0.95694357
10.612771 -20.213287 -81.061058 0.07079298 -0.16830239 -0.98319006
13.135671 3.1065266 -84.677139 0.14940748 -0.50297111 -0.85129166
-0.73977578 -19.187435 -81.201286 -0.18642606 -0.17660476 -0.96646577
28.508553 -19.87085 -77.266914 0.27858028 -0.15181226 -0.94833857
22.739159 -18.760242 -79.205719 0.25303707 -0.18972553 -0.94867086
26.891825 -22.837002 -76.763657 0.34244445 -0.20095433 -0.91779578
33.504761 -23.138559 -74.752159 0.41935611 -0.20552401 -0.88425124
25.344021 -18.493914 -77.964226 0.27931276 -0.18969142 -0.94127661
36.217155 -21.623987 -73.751999 0.36925772 -0.22108433 -0.9026463
16.31422 -17.707924 -80.300957 0.15825474 -0.23429459 -0.95919836
18.338978 -20.765594 -79.835052 0.18396939 -0.17528857 -0.9671759
34.304062 -18.444399 -75.626465 0.35678795 -0.19118959 -0.91441178
13.449651 -18.779245 -80.709846 0.14200309 -0.17154917 -0.97488767
10.429035 -16.873699 -81.306671 0.0013955716 -0.14825572 -0.98894811
18.086582 -16.686314 -80.856682 0.17717563 -0.20784916 -0.96198106
42.929729 4.1691322 -76.922417 0.48238203 -0.41480264 -0.77152216
19.625721 -17.383224 -79.801163 0.19188631 -0.18896891 -0.96305263
-13.034131 -14.122231 -81.221603 -0.09218809 -0.20589165 -0.97422272
-12.729954 -55.570492 -68.24025 -0.14266628 -0.57403195 -0.80630869
9.3655262 -66.807327 -55.577599 0.024220781 -0.96141863 -0.27402121
12.846219 -66.633064 -57.07515 0.039831519 -0.93954843 -0.34009156
69.211639 -9.9064083 -52.669418 0.72875607 -0.15505411 -0.66698796
73.131454 -8.7035341 -48.069046 0.79239994 -0.19188745 -0.57903492
54.832829 -7.286654 -66.620232 0.56385559 -0.18487912 -0.80491406
57.580643 -7.2011805 -64.855385 0.62306941 -0.1958559 -0.75724828
66.344963 -7.9783821 -56.496941 0.71599972 -0.19853759 -0.66927361
72.15773 -7.3182163 -49.985729 0.7508207 -0.18772385 -0.6332677
60.084618 -9.452342 -61.496513 0.64179325 -0.21546367 -0.73598707
62.638912 -10.4258 -59.507969 0.64421302 -0.18692116 -0.74165362
51.580948 -6.0772247 -69.332672 0.54064518 -0.20274013 -0.81645536
26.934681 0.78484064 -81.699646 0.27906528 -0.13516511 -0.95071179
63.261929 -6.3949828 -59.990623 0.66206712 -0.18677247 -0.72579831
52.604977 -3.9785421 -69.023773 0.57928222 -0.13063532 -0.80459088
69.142975 -6.9039683 -53.443649 0.74147028 -0.21697864 -0.63493478
72.167862 -4.4772844 -50.820583 0.74954998 -0.22257781 -0.62340516
45.208427 -2.2771206 -73.400017 0.46805432 -0.2155887 -0.85699856
57.473194 -3.439115 -65.434753 0.59818166 -0.14471449 -0.7881856
59.70557 -6.1393437 -63.219597 0.64538229 -0.19632003 -0.7382006
75.364716 -7.2573371 -46.081669 0.81270152 -0.20892645 -0.54393566
64.957748 3.6829348 -65.056259 0.097013772 -0.96800882 -0.23140286
65.370491 -3.3460083 -58.517006 0.71351868 -0.19996558 -0.67149454
34.417019 -69.461105 31.987251 -0.24634594 -0.96442258 0.095931433
38.249249 -70.743553 30.764416 -0.07895337 -0.99494451 -0.0620628
68.393494 3.3200459 -61.759113 0.10495805 -0.98056412 -0.16576414
49.221504 -64.952934 -42.323208 0.47137257 -0.74112415 -0.47806159
55.124786 -1.3833061 -67.415901 0.57424504 -0.2469462 -0.7805512
53.073864 1.154072 -69.400337 0.50396317 -0.26490688 -0.8220982
67.614548 -4.6922102 -56.120564 0.70411491 -0.19661334 -0.68232352
74.998375 -2.8755705 -48.008656 0.8001098 -0.20048553 -0.5653581
37.684483 3.8871834 -79.110588 0.17766438 -0.55207068 -0.81464916
49.331234 -2.5083778 -71.323471 0.49490479 -0.1361804 -0.85820997
61.77528 -3.8170271 -61.86816 0.62687027 -0.20739789 -0.7510125
64.442238 -1.2486355 -60.981197 0.6808089 -0.20534524 -0.70308793
41.533298 0.96959299 -76.294022 0.39008608 -0.36120838 -0.84697187
68.068153 -0.85934532 -56.631161 0.68435311 -0.24421634 -0.68703651
72.62912 -0.91932309 -51.494274 0.7424438 -0.25323427 -0.62020123
79.134918 -0.64329875 -42.124432 0.81808734 -0.18176231 -0.54561484
49.643017 0.85131687 -71.661469 0.50902075 -0.23481424 -0.82810634
62.360546 0.12839885 -62.446316 0.6064676 -0.24128985 -0.75761217
70.650421 -1.2097373 -54.083958 0.74355811 -0.17688774 -0.64485049
81.413513 -2.1979346 -38.237335 0.82072026 -0.26146328 -0.50799131
46.317486 4.1808572 -75.655136 0.26511779 -0.46062389 -0.84707624
58.512325 2.476398 -66.197517 0.52237153 -0.53198063 -0.66642678
59.263577 0.41533336 -64.878601 0.55184507 -0.2757999 -0.78702056
49.190819 3.8733323 -74.801971 0.3035416 -0.79573941 -0.52408129
50.270489 3.3363805 -72.296875 0.39857417 -0.71989787 -0.56823033
64.922226 2.6396036 -60.706669 0.57182652 -0.56079483 -0.59876841
61.60078 3.4543312 -65.168648 0.48213381 -0.64954197 -0.58791345
56.094818 3.8454099 -69.47525 0.41410163 -0.64662635 -0.64062023
59.865162 3.5709913 -67.850693 0.24204955 -0.88837463 -0.39013126
87.469315 -14.016857 -14.99514 0.94397128 -0.21458568 -0.25074109
20.764536 -66.28418 -56.267559 0.12302209 -0.91357291 -0.3876211
20.446236 -67.561737 -52.739414 0.060404208 -0.94431001 -0.32346562
53.874195 3.8772404 -73.272202 0.1082349 -0.98342907 -0.14543906
25.272011 -65.649315 -55.814079 0.18300602 -0.8528704 -0.48899975
31.674311 -66.449799 -51.274223 0.2053673 -0.88264745 -0.42279744
35.053108 -66.110283 -51.032616 0.21623759 -0.87817407 -0.42667502
32.569149 -64.963203 -54.440228 0.23578073 -0.81103802 -0.53537351
42.101307 -63.653549 -50.042824 0.38100657 -0.72282678 -0.57650274
38.365253 -65.413773 -50.317734 0.33274579 -0.79356867 -0.50944
35.826454 -64.37606 -53.473633 0.34031427 -0.74987215 -0.56734294
40.04681 -63.021378 -52.324123 0.39777479 -0.70330095 -0.58918834
44.887531 -63.967827 -47.396458 0.44906712 -0.72305542 -0.52490908
52.045025 -62.734108 -42.891769 0.51684451 -0.70066261 -0.49187765
12.361397 -54.612511 -69.871231 0.1123006 -0.55495 -0.82426876
32.236404 -62.500839 -57.530571 0.27769527 -0.72321165 -0.63233715
44.93998 -62.636509 -50.025238 0.46282789 -0.69420743 -0.55124068
47.443184 -62.696392 -47.168568 0.46090406 -0.68310469 -0.56651169
35.960915 -62.514072 -55.361458 0.35818258 -0.69940931 -0.61849165
53.994465 -64.803391 -37.999893 0.49505156 -0.76628155 -0.40955657
39.607784 -60.851528 -55.104828 0.39944997 -0.6861347 -0.60799581
42.153828 -60.436615 -53.733814 0.42411581 -0.67899746 -0.59923971
50.096981 -61.976284 -45.826485 0.47263718 -0.68906081 -0.54937172
52.915447 -60.201061 -45.545837 0.51649743 -0.66534871 -0.53901899
34.573364 -58.430382 -59.909958 0.35021502 -0.63243473 -0.69092375
38.30999 -59.396027 -57.570518 0.36994314 -0.64655626 -0.66716343
46.344521 -61.484406 -49.211895 0.51416272 -0.6759997 -0.52788365
63.122761 -61.205669 -30.755112 0.64984375 -0.68500561 -0.32934844
55.746975 -59.973934 -42.791672 0.55427247 -0.66905826 -0.49511936
34.479351 -55.951653 -62.626564 0.35632837 -0.53980434 -0.76265413
41.743168 -58.484913 -56.154514 0.41776016 -0.63857335 -0.64629757
45.159573 -59.834259 -52.373676 0.43406594 -0.65942502 -0.61379594
50.378815 -58.861591 -48.87595 0.46543747 -0.68622905 -0.55897909
37.103912 -58.148075 -59.419762 0.35168323 -0.57696283 -0.73717886
47.769112 -56.240238 -54.067699 0.52198184 -0.57095277 -0.63367802
37.743389 -55.36945 -60.992279 0.39516672 -0.56159997 -0.72694468
53.978889 -56.363327 -49.322178 0.55598205 -0.59716862 -0.57816392
41.482159 -55.223652 -59.123795 0.41514388 -0.55545402 -0.72050428
49.415607 -58.147873 -51.207504 0.48868099 -0.63462961 -0.59869528
56.610477 -57.695774 -44.347794 0.61638629 -0.5959608 -0.51468319
60.818493 -55.119114 -42.165443 0.62329304 -0.56523293 -0.5403865
44.969948 -56.638004 -55.986317 0.44682905 -0.59057677 -0.6719842
47.93335 -53.10252 -56.77084 0.52280843 -0.48874727 -0.69842494
44.296772 -52.237915 -59.648903 0.46077839 -0.4660598 -0.75529569
52.536453 -54.692101 -51.244179 0.56602502 -0.47922066 -0.67079306
59.406235 -54.776127 -44.531967 0.67352879 -0.51189572 -0.53321826
54.687233 -51.713631 -51.538544 0.58162904 -0.50631559 -0.63667279
56.900349 -54.391209 -47.625477 0.61770123 -0.49490616 -0.61115718
62.957626 -53.733387 -41.443256 0.70241028 -0.4728173 -0.53203714
33.630001 -46.612408 -68.088913 0.38540804 -0.34502032 -0.85581636
50.591789 -52.416336 -54.876774 0.56663913 -0.50600094 -0.65029466
62.417267 -49.380398 -45.003727 0.70158237 -0.41330716 -0.58048213
54.415974 -48.510124 -53.826485 0.63783234 -0.37130192 -0.67476273
56.213192 -49.99229 -52.098427 0.62022072 -0.37951216 -0.68651062
59.290077 -50.9151 -47.935448 0.67240489 -0.44125223 -0.59427953
-8.1447773 -31.209339 -78.029793 -0.076873243 -0.20097628 -0.97657514
50.95166 -45.994984 -58.104786 0.56165045 -0.32595184 -0.76046312
68.034302 -49.882648 -36.576023 0.77588892 -0.38735524 -0.49794823
47.981899 -45.588058 -60.429607 0.5128625 -0.33073008 -0.79220551
49.007641 -48.827343 -58.316284 0.53681874 -0.38821185 -0.74907762
52.611546 -50.144657 -55.018684 0.58991706 -0.41683805 -0.69155174
44.263821 -45.407185 -62.712219 0.4961541 -0.32103676 -0.806701
56.982124 -45.268402 -52.877785 0.65424657 -0.32549766 -0.68265116
65.202217 -46.130863 -43.806393 0.74171889 -0.34265682 -0.57657564
58.850105 -48.045799 -50.029327 0.68978536 -0.31449187 -0.65214336
36.794945 -42.641655 -67.676086 0.3931438 -0.3189562 -0.86238325
53.938438 -46.63139 -55.728973 0.64564812 -0.33550233 -0.68598592
55.087337 -42.449543 -56.401165 0.6277051 -0.28598273 -0.72401673
45.965271 -42.04422 -63.100376 0.49476483 -0.2919935 -0.81850326
61.653736 -46.184437 -47.862717 0.7127527 -0.34808612 -0.60894966
5.0508399 -28.450439 -79.162102 -0.086683996 -0.11523022 -0.98954934
42.717682 -41.056576 -65.274643 0.49556768 -0.27633196 -0.82343996
60.246372 -44.36718 -50.532101 0.68297917 -0.35001311 -0.64111644
39.704243 -39.799591 -67.46283 0.43604717 -0.26139104 -0.86112577
49.598888 -42.618313 -60.630474 0.55643052 -0.28201479 -0.78157067
57.152363 -41.249352 -54.919636 0.642061 -0.28437945 -0.7119593
64.365463 -42.798058 -46.521183 0.73500162 -0.30918816 -0.60346937
35.640942 -39.261913 -69.800247 0.40595034 -0.27577749 -0.87129283
53.168133 -39.187721 -59.095203 0.59634811 -0.2432158 -0.76499343
66.451057 -43.315693 -43.529408 0.76930881 -0.32557946 -0.54969275
45.222881 -39.282772 -64.430275 0.49106658 -0.29262328 -0.82050312
59.220612 -42.601982 -52.583881 0.66029525 -0.31933382 -0.67973244
2.53672 -24.689129 -80.377083 0.082297474 -0.453747 -0.88732231
48.302998 -38.487667 -62.625053 0.5347718 -0.27835175 -0.79783422
60.9561 -38.962734 -52.199097 0.68278795 -0.24902438 -0.68686789
63.473721 -40.982632 -48.649719 0.72503567 -0.29149687 -0.62398148
42.322472 -36.726196 -66.926308 0.46033511 -0.25261328 -0.85104531
56.936756 -38.393215 -55.966557 0.64327592 -0.25393128 -0.72229844
69.865433 -40.774376 -40.211803 0.8016811 -0.3288388 -0.49917176
52.038685 -36.723934 -60.601505 0.58802426 -0.30524641 -0.74903405
62.389072 -36.203815 -51.508701 0.69736135 -0.24716996 -0.67275125
64.946365 -36.28083 -49.242157 0.7314319 -0.24534053 -0.63625103
45.618973 -36.517029 -65.34642 0.49700978 -0.26187509 -0.82728642
5.7240977 -21.998144 -80.445946 0.034790959 0.068470292 -0.99704635
50.415737 -34.681999 -63.088371 0.54640383 -0.27254611 -0.79193527
60.970676 -33.884686 -54.148094 0.67608434 -0.26547226 -0.68733865
66.423027 -36.930275 -46.591156 0.75427967 -0.2589159 -0.60334462
44.034294 -33.20187 -66.907257 0.45230246 -0.22825588 -0.86216116
55.121948 -34.836594 -58.955612 0.6269604 -0.26234046 -0.73355174
4.2854629 -19.233318 -80.881615 0.25850329 -0.12187992 -0.95829087
57.425781 -33.795677 -57.24704 0.62867296 -0.27651972 -0.72684741
48.49102 -30.19729 -65.291603 0.5405125 -0.20781498 -0.81526631
47.871613 -33.02076 -64.888153 0.49594161 -0.24036641 -0.83442545
53.281898 -32.432552 -61.417416 0.62018436 -0.24438947 -0.74541605
3.1111305 -15.172549 -80.486588 0.17256108 0.21831448 -0.96050066
39.905293 -29.397081 -70.184303 0.47609371 -0.24006049 -0.84599394
58.811016 -30.915649 -57.285225 0.64690644 -0.25647885 -0.71814394
65.129501 -31.979818 -50.217754 0.73742765 -0.24096248 -0.6309815
55.423168 -30.752968 -60.043972 0.6126579 -0.24439164 -0.75161362
44.998959 -28.253111 -67.983322 0.45820206 -0.16076256 -0.8741889
68.340042 -30.601313 -46.91946 0.7526139 -0.2502526 -0.60905337
51.830288 -29.93647 -63.025131 0.55127591 -0.21017832 -0.8074156
62.198601 -31.04854 -53.819504 0.70393538 -0.25350037 -0.66348511
48.46233 -26.529873 -66.15107 0.46012005 -0.12721477 -0.87869561
52.822559 -27.0231 -63.432034 0.58568496 -0.24612047 -0.77226794
69.971405 -28.222731 -46.109123 0.77901042 -0.2245228 -0.58543342
57.645523 -27.82262 -59.256218 0.64503682 -0.19193645 -0.73965389
62.350273 -27.830221 -54.932716 0.68105334 -0.20482539 -0.70300275
66.636627 -28.274342 -49.809338 0.75358349 -0.22185887 -0.61878151
56.507755 -24.847977 -60.954185 0.61928111 -0.22825736 -0.75125861
69.719772 -25.01844 -47.104565 0.77121043 -0.19075194 -0.60732871
63.327347 -24.357452 -54.852993 0.68989599 -0.22934739 -0.68661731
54.815792 -21.531111 -63.062824 0.62227315 -0.15702777 -0.7668888
60.766262 -25.16025 -56.879017 0.65876657 -0.23148835 -0.71584898
65.341682 -27.370375 -51.90884 0.73325175 -0.22741571 -0.64079952
68.039268 -23.153727 -49.918507 0.76304835 -0.22094925 -0.60740322
51.156639 -24.100332 -65.675667 0.47010803 -0.18773395 -0.86241192
72.323105 -26.123322 -43.259174 0.80713499 -0.23377749 -0.54210812
52.090874 -20.671347 -65.431931 0.54403013 -0.18604305 -0.81818044
58.891125 -22.97813 -59.890106 0.64009625 -0.21695738 -0.73702532
63.710941 -20.546423 -55.787045 0.68994761 -0.17742436 -0.70177847
71.322929 -20.475533 -46.685825 0.7734623 -0.212485 -0.59716505
9.8098822 -6.825326 -83.166573 0.03917883 -0.1183124 -0.99220324
46.436436 -18.712986 -69.520767 0.50936526 -0.2902455 -0.81012625
69.197578 -19.725424 -49.88353 0.76734352 -0.17452043 -0.61703038
48.513191 -18.669338 -67.883263 0.43524098 -0.31953529 -0.8417021
65.68943 -22.16538 -53.111343 0.73331553 -0.2080843 -0.64726287
67.71698 -19.008707 -51.738937 0.75844717 -0.18049362 -0.62624276
47.792183 -15.122995 -69.701065 0.48977351 -0.16240536 -0.85658997
50.867641 -17.43379 -67.362335 0.54716355 -0.18886831 -0.81543899
57.147499 -20.069473 -61.28746 0.59298843 -0.16796054 -0.78749853
59.932083 -20.126066 -59.457726 0.64261329 -0.1338757 -0.75440395
54.325668 -17.94874 -64.250542 0.623312 -0.20523204 -0.75456077
64.240791 -15.763029 -56.363087 0.6793294 -0.18551631 -0.7099967
67.482422 3.0046611 -59.352673 0.46816641 -0.69927293 -0.54021984
69.499954 2.6703713 -56.779335 0.64158171 -0.55067337 -0.53397727
57.387825 -15.96306 -62.489353 0.62095851 -0.20850658 -0.75560278
66.663681 -16.558664 -53.783485 0.73614234 -0.19596419 -0.6478368
69.875183 -14.616417 -49.971889 0.76005411 -0.22050391 -0.61130661
72.172005 -15.571557 -47.1171 0.76253396 -0.19427554 -0.61708903
73.678253 -18.039007 -44.718643 0.75730056 -0.15449463 -0.63452917
53.202255 -14.811658 -66.0467 0.56887728 -0.1795093 -0.80259269
60.583088 -16.844604 -59.238796 0.65984601 -0.17218208 -0.73140728
74.923851 -14.516539 -43.839073 0.81224912 -0.1980162 -0.54867196
46.057755 -12.833524 -70.529549 0.50657332 -0.18851198 -0.84133625
56.394451 -11.232916 -64.615059 0.61229444 -0.19856912 -0.765288
59.1311 -13.641794 -61.482224 0.6372444 -0.18739107 -0.74753207
62.698875 -14.211439 -58.458614 0.65529865 -0.22360405 -0.72151566
77.550262 -12.702629 -39.917999 0.86476362 -0.14615242 -0.48044086
50.780754 -12.498411 -67.767738 0.55977362 -0.14040807 -0.81666332
71.996368 -12.94427 -48.730152 0.78363603 -0.21161218 -0.58406758
37.759281 -7.0950513 -76.318901 0.35093305 -0.15272345 -0.92386228
41.041294 -12.082956 -73.881073 0.4205265 -0.20831871 -0.88304067
64.456337 -11.389833 -57.278347 0.70666707 -0.19746701 -0.67943239
70.917084 -11.255236 -50.651451 0.75997365 -0.20820068 -0.61570501
48.028667 -7.642518 -71.137947 0.49970797 -0.18047 -0.84718502
-12.049205 -23.802765 -78.90062 -0.12243863 -0.22141305 -0.9674632
37.953075 0.67455477 -77.656532 0.37373662 -0.2585268 -0.89077765
3.1276548 -17.53426 -81.47731 0.23648854 0.090726607 -0.96738917
0.8010304 -55.444187 -69.915009 -0.01808548 -0.538679 -0.84231693
12.87523 -65.072922 -60.425243 0.12378624 -0.83363158 -0.53827077
20.561424 -64.795586 -58.930424 0.15039951 -0.81002277 -0.56678319
44.755249 -13.278846 -72.132622 0.51612294 -0.23204474 -0.82448316
89.724274 2.5577202 -26.449621 0.596775 -0.76357573 -0.24660045
90.572083 2.2623122 -21.127851 0.79108 -0.51210034 -0.3345829
75.821007 -10.873659 -43.747623 0.82355917 -0.19035521 -0.53433615
91.745461 2.0254645 -18.327982 0.85457361 -0.4738639 -0.21250133
79.361275 -11.534948 -37.371597 0.84263831 -0.12927304 -0.52273238
82.980354 -12.364653 -30.272106 0.88417566 -0.19998932 -0.42218202
85.189438 -12.695909 -24.961714 0.90697485 -0.17849702 -0.38149098
86.669998 -14.153196 -17.972515 0.95647424 -0.17965133 -0.2299615
76.835487 -8.530838 -42.78297 0.84827203 -0.22273231 -0.48044249
88.94809 -13.331304 -10.682875 0.96382874 -0.17863053 -0.19780104
87.575897 -11.010059 -18.635612 0.92226517 -0.27695182 -0.26967534
89.975967 -11.489596 -5.3579521 0.98597056 -0.13746078 -0.09469112
85.95752 -11.392762 -23.052753 0.94671977 -0.16089003 -0.27899125
88.82299 -10.810605 -13.501477 0.94878161 -0.25404114 -0.18782052
76.931595 -4.0270486 -44.16412 0.81451803 -0.17308156 -0.55371767
86.514862 -7.7701297 -22.417557 0.90448958 -0.27807966 -0.32337341
84.551842 -7.760417 -28.506784 0.88854939 -0.21886344 -0.40321058
86.241882 -6.6034036 -25.32321 0.9122448 -0.24264616 -0.33004886
88.804703 -8.5108986 -16.887016 0.95279169 -0.18224946 -0.24284387
82.684494 -6.8009953 -33.218597 0.86014616 -0.29274037 -0.41767403
81.208557 -6.8150625 -35.981319 0.82028556 -0.24809408 -0.51534551
88.119194 -7.4844766 -19.314623 0.92810756 -0.21643345 -0.30294052
89.900978 -7.6937017 -12.471456 0.95752454 -0.22778986 -0.17680074
90.057846 -8.28475 -8.2622938 0.96823066 -0.21909085 -0.12053432
89.095253 -6.0499263 -15.818113 0.95184147 -0.18289189 -0.24606541
91.096863 -7.0758114 -5.7218962 0.94335115 -0.23305623 -0.23616397
80.114098 -4.5387349 -38.947399 0.85852349 -0.25398725 -0.44545257
91.695671 -4.2972221 -4.4384866 0.95272821 -0.15217876 -0.26296517
70.643776 0.84178281 -53.726696 0.69827747 -0.30092242 -0.64950317
83.375679 -3.4763951 -34.147289 0.88560849 -0.22235759 -0.40774336
84.864334 -4.0472565 -29.901213 0.87785399 -0.23223858 -0.41885278
86.330971 -1.7335445 -29.281 0.884628 -0.21127936 -0.41568536
88.136696 -5.3846798 -22.124054 0.91113222 -0.25677311 -0.32234406
91.355713 -3.5894539 -10.4537 0.96627837 -0.22028922 -0.13333677
90.957512 -4.1798277 -7.7388077 0.97561109 -0.19107839 -0.10803723
91.805717 1.8209428 -15.182567 0.90190929 -0.39403418 -0.17690848
73.564751 2.7708843 -52.69101 0.6268326 -0.46163943 -0.62767029
78.024681 0.8950572 -44.445831 0.76311117 -0.40967518 -0.49982765
83.619896 0.51244771 -35.311718 0.76513708 -0.4598732 -0.45064613
90.097801 -3.103847 -15.156399 0.92584926 -0.2936053 -0.23790576
86.253609 -4.0309434 -27.147398 0.89358276 -0.24787267 -0.37425798
89.227669 -3.8073394 -18.730967 0.94995564 -0.22306474 -0.21869271
89.701569 -1.1773281 -19.405474 0.89760393 -0.34440333 -0.2751244
95.396736 2.1817136 15.56776 0.41780531 -0.90816587 0.025954118
74.87841 3.2094409 -50.931431 0.77762258 -0.35268182 -0.52049845
76.308746 2.4814548 -48.395378 0.74698621 -0.3804929 -0.54519433
88.129616 -1.2818063 -25.402781 0.91085839 -0.20925234 -0.3557393
88.292793 -1.9752033 -22.562241 0.93307853 -0.21972366 -0.284756
91.305992 -1.4583937 -10.698637 0.93356621 -0.35251927 -0.064686388
84.871948 -0.72903037 -31.188852 0.83886075 -0.41935495 -0.34706476
87.263931 0.57096833 -26.694311 0.86629963 -0.33696777 -0.36875156
92.653961 -0.68100077 -4.1525373 0.94830352 -0.0027489692 -0.31735304
79.359314 3.006202 -46.894638 0.46405491 -0.82363802 -0.32599625
80.340569 2.0831831 -41.750038 0.69264221 -0.56369716 -0.44999138
91.399864 -0.83818412 -13.678164 0.93825698 -0.2857973 -0.19492018
92.225029 0.96845889 -11.264314 0.89661288 -0.39514652 -0.19986121
93.89138 2.0630703 -8.6313124 0.74475539 -0.66423893 -0.064234309
92.066368 0.28839555 -5.9832492 0.89608276 -0.43711802 -0.077223435
82.269043 2.8694515 -42.39333 0.30995381 -0.92829311 -0.20542729
82.957481 2.2742076 -38.157867 0.73116601 -0.49019605 -0.47445133
89.096619 1.2998774 -23.003654 0.85876298 -0.42141661 -0.29143468
25.461376 -67.197174 -52.745224 0.088681892 -0.95065504 -0.29730558
40.438644 -70.505714 -30.14896 0.13932231 -0.96733361 -0.21178986
29.439487 -66.238152 -53.285042 0.19125752 -0.8402409 -0.50736165
30.175413 -67.569336 -50.39064 0.11693609 -0.9528982 -0.2798411
20.352097 -62.964687 -61.236866 0.19769871 -0.71891046 -0.66639555
24.01602 -62.419437 -60.71397 0.2206604 -0.71648389 -0.6617853
22.835999 -60.580887 -62.769875 0.23110396 -0.67025578 -0.70522904
41.131729 -68.470703 -40.04076 0.084554464 -0.99018407 -0.1112924
41.285805 -68.758514 -32.440369 0.13573112 -0.96986634 -0.2023274
50.058811 -67.690102 -35.296494 0.28523144 -0.93705875 -0.20140497
47.232067 -68.710823 -31.846373 0.14282691 -0.97393447 -0.17621587
47.476505 -67.746414 -35.943638 0.14438988 -0.97993046 -0.13743331
52.259087 -67.762924 -30.373608 0.26131493 -0.9461931 -0.19087414
51.865032 -66.520226 -36.859558 0.39817521 -0.86172718 -0.3144564
53.228619 -66.189987 -34.229156 0.41828829 -0.87776858 -0.23357478
55.434425 -67.45726 -28.567274 0.29658341 -0.92150748 -0.2507233
57.08979 -65.06002 -33.069427 0.44854885 -0.82349652 -0.34735778
64.944725 -67.014137 -7.0540423 0.52139598 -0.84269154 -0.13422762
56.356346 -62.67112 -38.050365 0.54750144 -0.70263976 -0.45446628
63.204037 -66.047623 -17.36105 0.53310359 -0.82805979 -0.173544
59.543545 -62.845509 -33.790382 0.57644045 -0.71115977 -0.40245265
68.39827 -63.176964 -13.63227 0.62537897 -0.75993675 -0.1771926
67.747337 -64.617477 -9.1401148 0.62982363 -0.76243597 -0.1483698
