# .PCD v0.7 - Point Cloud Data file format
VERSION 0.7
FIELDS x y z normal_x normal_y normal_z
SIZE 4 4 4 4 4 4
TYPE F F F F F F
COUNT 1 1 1 1 1 1
WIDTH 722
HEIGHT 1
VIEWPOINT 0 0 0 1 0 0 0
POINTS 722
DATA ascii
-77.167648 11.564063 -89.210686 0.49316713 -0.30776444 0.81367517
-83.549667 8.4200239 -86.399796 0.52200538 -0.31482136 0.79271549
-66.065338 10.08244 -95.221321 0.35615858 -0.31327844 0.88034523
-66.635307 13.490376 -93.754166 0.3695823 -0.31378543 0.87461293
-58.23243 13.06617 -97.061905 0.29732478 -0.31764916 0.90038711
-35.982338 12.914426 -101.92893 0.13065937 -0.29258251 0.9472717
-73.720322 13.409392 -90.404251 0.449406 -0.30376667 0.84009522
-50.499004 13.530023 -99.166763 0.23496684 -0.31631649 0.91909438
-24.132509 13.449841 -102.5015 0.038574189 -0.31039542 0.94982457
-82.296509 12.165962 -85.816055 0.50461859 -0.31319398 0.80453062
-62.607441 15.460299 -94.64579 0.33738506 -0.31679919 0.88645899
-71.545441 17.047453 -90.314407 0.42607725 -0.29842058 0.85405111
-85.903137 12.830336 -83.103806 0.56370968 -0.30321375 0.76830512
-42.326584 13.133839 -101.08381 0.16626583 -0.30839863 0.9366141
-80.519234 16.256889 -85.229698 0.5107013 -0.30880946 0.8023845
-118.80079 5.4334731 -50.447468 0.81011474 -0.31887963 0.49196535
-44.07148 19.767509 -98.477234 0.18600498 -0.31667531 0.93011773
-48.118187 18.072075 -98.155594 0.22267389 -0.31470585 0.9227007
-67.407829 17.554583 -91.973244 0.3658081 -0.31069562 0.87729853
-40.148563 19.758566 -99.196335 0.15086544 -0.30638379 0.93987691
-59.051758 20.94486 -94.002335 0.31657296 -0.3110835 0.89610749
-34.960972 16.759207 -100.9351 0.1343188 -0.29451561 0.94616014
-84.94928 16.668755 -82.336311 0.5506956 -0.30207694 0.77812845
-35.339752 20.802586 -99.599304 0.12988335 -0.2910893 0.94783825
-46.93383 22.437187 -96.981628 0.20248894 -0.28894809 0.9356854
-55.217587 18.845629 -95.988686 0.26377693 -0.31080014 0.91314018
-63.006561 20.941547 -92.469788 0.34680918 -0.30760708 0.88605946
-76.627235 19.131529 -86.713631 0.50869066 -0.29085422 0.81033182
-50.372887 22.316208 -96.124992 0.23770916 -0.28572023 0.9283632
-69.606453 20.91254 -89.931854 0.38183519 -0.30793622 0.87142253
-62.254406 28.501879 -90.280228 0.35319069 -0.29943419 0.88633823
98.147232 -18.909925 51.448948 0.2893804 -0.95173138 0.10230533
96.153542 -19.153013 55.138973 0.28035393 -0.95467848 0.099953748
-144.0735 -21.700541 -11.411757 0.502886 -0.86236 0.058658686
-145.77394 -21.70817 3.0413201 0.39862323 -0.91708779 0.0070416103
-143.12436 -21.354548 -14.063038 0.59804344 -0.79227227 0.12103157
-138.02673 -17.351488 -22.968117 0.83554816 -0.5098207 0.20479763
-74.142632 21.655245 -87.256027 0.46129745 -0.2894915 0.83868903
-84.440468 26.612391 -78.698784 0.56643641 -0.31979635 0.75952619
23.458632 24.38199 -87.384537 -0.43823266 -0.31127593 0.84324342
16.316887 25.330578 -90.628204 -0.4013167 -0.30163941 0.86484587
24.516777 28.84889 -85.031784 -0.44935519 -0.34361422 0.82462668
18.624418 29.577997 -87.79425 -0.419424 -0.375761 0.82636982
14.258643 29.552385 -89.918411 -0.34509948 -0.33443612 0.87696004
5.9904299 30.03614 -92.726051 -0.32393745 -0.33624908 0.88430828
-3.5403903 30.028835 -95.479195 -0.22141166 -0.30818194 0.92520308
-10.505089 30.41297 -95.593445 0.06743516 -0.92463648 0.37483326
14.839855 -15.333201 -105.46207 -0.30240232 -0.38953367 0.86995196
12.103839 -15.154995 -106.09262 -0.27498287 -0.38114968 0.88267177
-1.9462162 -14.850159 -109.64881 -0.17340198 -0.35709795 0.91783047
-6.3054762 -15.226985 -110.60451 -0.14189124 -0.36102968 0.92169648
-13.982365 -15.389058 -111.82883 -0.095094442 -0.40884346 0.90763658
27.405531 -14.649669 -99.909782 -0.40641323 -0.39796263 0.82246822
1.278365 -14.589618 -108.92374 -0.20722999 -0.33573842 0.9188773
-18.938017 -14.876064 -111.76997 -0.06623967 -0.35927576 0.93087763
19.572287 -15.112985 -103.52845 -0.35457301 -0.38375959 0.85264683
-10.079759 -9.7532272 -109.11317 -0.12824614 -0.32530057 0.93687373
-13.455486 -12.470729 -110.45907 -0.096056536 -0.35176906 0.93114525
-23.897907 -15.093801 -112.42281 -0.055892516 -0.40385801 0.9131127
20.108162 -11.069154 -101.46073 -0.35802686 -0.33748499 0.87058634
-3.4761245 -11.317774 -108.56351 -0.16219896 -0.33456165 0.92831028
-37.082016 -15.041375 -111.58598 0.11348481 -0.40728325 0.90622377
86.458588 -22.262022 -50.472126 -0.35600254 -0.91555637 0.1871331
90.905479 -22.794605 -46.461922 -0.24696882 -0.95938796 0.13631251
28.484434 -11.059706 -97.85244 -0.42013347 -0.33416834 0.84369385
18.22085 -12.392731 -102.84498 -0.33848885 -0.36313874 0.86807579
14.420425 -11.120359 -103.70544 -0.2976025 -0.33574075 0.89370632
10.740244 -11.862254 -105.15697 -0.282186 -0.3458958 0.89483356
-36.065739 -11.696183 -110.20982 0.098937236 -0.3407999 0.93491542
-49.513481 -14.859764 -109.72788 0.16829585 -0.58678192 0.79206282
78.613708 -20.022459 -56.875515 -0.63698655 -0.64360982 0.42428112
75.439842 -18.769087 -59.171719 -0.70693141 -0.50182742 0.49841475
73.547264 -17.924534 -61.638897 -0.76633328 -0.38858604 0.51159972
3.4646404 -7.5196657 -105.7961 -0.23192987 -0.31631124 0.91986722
-56.479061 -15.063422 -108.15601 0.23289777 -0.6015417 0.76413757
91.279228 -22.339804 -42.485912 -0.23819473 -0.96478063 0.11163128
87.550255 -21.803583 -45.660549 -0.43869311 -0.87345082 0.21126281
71.791855 -17.174877 -62.968822 -0.72896969 -0.35458398 0.58555394
-1.9601208 -8.2805986 -107.25574 -0.18366405 -0.31310013 0.93179172
77.77829 -18.441441 -55.802124 -0.70478994 -0.53500253 0.46587929
69.803879 -16.385204 -65.199852 -0.77693647 -0.317734 0.54352081
-22.894714 -11.17699 -110.62905 -0.031750359 -0.34450999 0.93824559
74.951881 -16.41091 -57.844215 -0.77879739 -0.40553752 0.47855392
69.938477 -13.688241 -63.430847 -0.75717682 -0.33919787 0.55823654
15.123152 -7.0797133 -102.0381 -0.33091846 -0.31674191 0.88891363
-30.618191 -8.9685593 -109.6741 0.051530112 -0.32180312 0.94540328
-58.147518 -13.787304 -106.91069 0.26619029 -0.37951195 0.8860662
-63.476177 -14.134353 -105.32822 0.29743478 -0.37483081 0.87808567
8.987009 -5.3781085 -103.55959 -0.27925408 -0.30808386 0.90945125
7.9374127 -8.6576672 -105.02151 -0.27386943 -0.30982658 0.91049612
-14.505479 -7.234745 -108.72681 -0.090542465 -0.3165462 0.94424599
-17.728851 -9.3904514 -109.77482 -0.066774629 -0.32106382 0.9447006
-22.460861 -6.6138244 -109.11785 -0.024602937 -0.32365942 0.94585371
72.535034 -12.744978 -59.362759 -0.77958214 -0.33732808 0.52769446
-27.094824 -2.1423421 -107.51319 0.010175604 -0.31969285 0.94746661
-27.401039 -7.627357 -109.49211 0.017730093 -0.32966521 0.94393134
18.699902 -5.3356256 -100.00607 -0.36236092 -0.30761084 0.8798126
-7.2003183 -6.1677556 -107.51201 -0.15091616 -0.3027305 0.94105178
32.340145 -7.4084654 -94.314125 -0.45631546 -0.31982198 0.83035541
-0.60106796 -3.745878 -105.53661 -0.20585169 -0.30357152 0.93030602
-11.722288 -4.4550953 -107.58627 -0.11187545 -0.30835149 0.94467098
-17.998396 -1.8616151 -107.28232 -0.064152576 -0.31659797 0.94638801
26.865063 -6.323246 -96.813591 -0.41593856 -0.31877097 0.8516925
23.342585 -6.0125484 -98.297844 -0.37720767 -0.32380116 0.86767918
18.21505 -1.8292298 -99.024635 -0.36708865 -0.31339869 0.87580091
15.590945 -3.2263248 -100.53391 -0.32551223 -0.30684298 0.89436525
11.362422 -3.6366386 -102.14469 -0.30699119 -0.31042826 0.89966142
-3.3098416 -2.0789762 -105.58466 -0.17475291 -0.3097055 0.9346357
-8.1664658 -2.658215 -106.52856 -0.13366199 -0.30406719 0.94322723
-11.875222 -1.3364806 -106.55739 -0.096951671 -0.30932164 0.94600236
28.463036 -4.8852181 -95.529579 -0.43778864 -0.31402054 0.84245604
-31.942995 -1.2665724 -106.94632 0.066519409 -0.31966946 0.94519126
-83.127663 -13.792275 -95.818344 0.47454482 -0.39651594 0.785864
25.626793 -0.53396869 -95.240341 -0.40276212 -0.32096344 0.85718447
2.0407164 -1.7460726 -104.30218 -0.23402417 -0.30858153 0.92195994
-21.922657 -1.8844575 -107.39448 -0.019178769 -0.3198891 0.94726086
-84.469627 -12.960143 -94.4338 0.49340671 -0.33781397 0.80151826
22.130213 -3.0633025 -97.741158 -0.38276777 -0.31407428 0.86881888
6.0918846 0.97279149 -102.32082 -0.26171675 -0.29814258 0.9179408
24.561527 2.3092103 -94.700317 -0.39783704 -0.30300909 0.86597413
-7.7254014 2.7151089 -104.74636 -0.1399568 -0.30043375 0.94347852
-95.924065 -14.703064 -87.50164 0.55009609 -0.40787935 0.72871721
20.604475 1.4424362 -96.76825 -0.37769017 -0.31243652 0.87162691
-0.39271399 1.3487257 -103.69656 -0.2009854 -0.30729479 0.93014777
-38.471786 -0.19010834 -105.91187 0.10880129 -0.32890514 0.93807447
14.209129 3.3983097 -98.761543 -0.34487846 -0.30241549 0.88859653
-20.42075 2.6574149 -105.85603 -0.04332415 -0.30848753 0.95024133
1.6728381 5.2486277 -102.13298 -0.20762368 -0.28556925 0.93559748
-4.9762473 4.7049422 -103.67097 -0.18047154 -0.29075882 0.93962193
-17.1322 6.1949039 -104.58259 -0.052284837 -0.29013807 0.9555555
-14.578649 2.5231059 -105.57626 -0.079750717 -0.30209315 0.94993657
5.0368056 6.6848574 -100.85941 -0.25257969 -0.29614925 0.92114007
10.125939 2.2216592 -100.55824 -0.30729285 -0.29677293 0.90415537
-1.2184182 4.0908113 -103.00876 -0.19286548 -0.2916142 0.93689066
20.289169 4.2498212 -95.970078 -0.37540427 -0.29958159 0.87711036
10.022917 6.7301698 -99.199615 -0.31201637 -0.28740704 0.90556228
-21.61886 5.342998 -105.07189 -0.030572403 -0.30556202 0.9516812
-25.220274 5.3008161 -105.18823 -0.0046156957 -0.30915761 0.95099968
-25.130175 1.1506649 -106.52733 -0.012414911 -0.30425337 0.95251024
-79.790314 -3.8295918 -93.542984 0.46207976 -0.34032992 0.818937
-82.068466 -6.5701585 -93.47998 0.48910674 -0.32498667 0.8094185
-107.84673 -14.685454 -76.33387 0.70090961 -0.35332012 0.61958909
-1.2607373 6.5381107 -102.26002 -0.20056096 -0.3089408 0.929694
-103.7027 -11.926023 -78.98597 0.64954931 -0.3485412 0.67572534
-101.05682 -9.5471497 -80.311256 0.64191955 -0.32466966 0.69464302
17.379494 6.2940493 -96.456253 -0.36752018 -0.2953279 0.88187879
12.435754 10.037016 -97.257996 -0.34396681 -0.294781 0.89151055
-13.046986 6.8780222 -104.13518 -0.094402112 -0.29023114 0.95228887
23.917488 6.3027263 -93.667625 -0.41581333 -0.30411515 0.85709584
18.409555 8.8244524 -95.236603 -0.36903891 -0.28934395 0.88322723
7.382978 11.69511 -98.500381 -0.30092797 -0.2979781 0.90589815
-23.463156 8.8805485 -103.88238 -0.0066587082 -0.29571524 0.95525289
-30.098173 6.3694329 -104.71239 0.056293584 -0.30463678 0.95080358
-133.74806 -22.083599 -48.569653 0.35843191 -0.90218288 0.23998475
-132.40967 -21.885101 -50.798634 0.4046686 -0.90504378 0.13091661
-135.51953 -22.597822 -49.780499 0.23617147 -0.97081256 0.041784853
-9.6169071 9.356451 -102.94183 -0.12983572 -0.29888842 0.94541442
-19.308485 9.2632761 -103.78255 -0.037897017 -0.26770258 0.96275604
-78.67907 1.6750311 -91.779648 0.48223251 -0.31659099 0.81683648
-0.11104278 9.8590679 -100.90038 -0.20919885 -0.29410774 0.93259662
-2.7266419 10.801857 -101.37199 -0.19691639 -0.30610755 0.93140858
-132.29781 -21.091795 -47.492756 0.60505027 -0.74183553 0.28912675
26.147114 9.7280931 -91.185654 -0.43832636 -0.30528069 0.84538376
4.2244501 14.355711 -98.582336 -0.23430178 -0.30060148 0.92452228
-4.504005 7.7680387 -102.58818 -0.17875336 -0.29115006 0.93982917
-15.53161 10.941449 -103.09037 -0.084932432 -0.28209382 0.95561999
-27.853609 9.9017687 -103.73471 0.015385333 -0.32155195 0.94676691
-136.30333 -22.691357 -47.523548 0.32814294 -0.92431957 0.19482172
-137.1515 -22.047115 -43.838352 0.42346865 -0.8889249 0.17460485
28.23394 13.513043 -88.842873 -0.43309057 -0.2957412 0.85145158
20.313377 10.564902 -93.827316 -0.39125764 -0.3038618 0.86866879
-8.2058668 13.435198 -101.43648 -0.15228459 -0.30047476 0.94155425
-84.268044 2.1042342 -88.253952 0.51964104 -0.31548434 0.79400438
14.246037 13.917879 -95.261589 -0.35429791 -0.29504845 0.88736653
-31.246141 9.6211119 -103.60522 0.051075879 -0.31270635 0.9484756
-33.801342 9.5481625 -103.29595 0.12806791 -0.29639545 0.94643986
-81.145805 0.18749547 -91.272881 0.47571364 -0.32615083 0.81689787
-136.61259 -21.497 -41.505821 0.54614884 -0.82444203 0.14838026
31.437174 10.58139 -88.154533 -0.46903098 -0.28058478 0.83742589
-20.982553 12.56584 -103.02929 0.028181208 -0.27383858 0.96136278
-134.59248 -20.142185 -41.364754 0.53502506 -0.81122673 0.23592234
-138.11481 -22.270634 -38.587662 0.51661694 -0.84357321 0.14659846
22.968508 14.741755 -91.059822 -0.42100155 -0.30879259 0.8528803
-6.2754121 16.856958 -99.995644 -0.17635013 -0.30344367 0.93638808
-31.763792 15.095067 -101.87617 0.05917662 -0.30243582 0.95133102
-0.58697206 13.949396 -99.728546 -0.19944106 -0.30439502 0.93143272
-133.82762 -19.255547 -41.01086 0.72600555 -0.61384475 0.31001711
18.166824 12.914933 -93.944824 -0.38175091 -0.30042908 0.87407589
11.75629 17.360067 -95.133827 -0.34567177 -0.29662856 0.89023727
-14.207892 14.495895 -101.86876 -0.11724057 -0.28256044 0.95205784
-18.775955 15.176511 -102.23728 -0.060396358 -0.27899545 0.95839131
15.956754 16.628542 -93.569336 -0.37154886 -0.29466313 0.88041186
9.3186798 15.598457 -96.531258 -0.30986437 -0.29854441 0.90269339
5.3202782 18.921621 -96.772514 -0.2644943 -0.30822632 0.91380483
-26.610903 15.350259 -101.68662 0.02402908 -0.31434181 0.94900572
21.58395 18.351782 -90.29705 -0.42081168 -0.30998492 0.85254145
-0.77864069 16.338923 -99.036285 -0.20147148 -0.30543205 0.93065596
-21.574976 16.97484 -101.55003 0.042993248 -0.31715986 0.94739705
-13.53691 20.242962 -100.13689 -0.13265143 -0.29175517 0.94724995
-28.168739 18.679543 -100.71508 0.021916425 -0.29903603 0.95399016
24.795874 18.004324 -88.947678 -0.41584194 -0.30413464 0.85707504
-1.6838493 21.888729 -97.419647 -0.20118666 -0.2980606 0.9331044
14.858925 20.779535 -92.721161 -0.36045435 -0.2883268 0.88709658
-16.77014 18.64657 -101.03261 -0.052472886 -0.31502098 0.94763303
-32.165688 20.699928 -100.00114 0.043245178 -0.31259248 0.94890237
22.659208 21.559616 -88.777809 -0.41042867 -0.2934171 0.86339718
10.284175 21.577534 -94.190659 -0.31078014 -0.30353776 0.90071112
-9.8737803 23.698048 -98.385109 -0.16201869 -0.29702523 0.94102389
13.772364 23.758942 -92.238152 -0.34244451 -0.30405626 0.88897783
-24.363251 19.794294 -100.46426 0.039346837 -0.3036086 0.95198411
4.3792915 21.893122 -96.003586 -0.25001729 -0.3055445 0.91876757
-17.181072 22.693951 -99.530869 -0.025495991 -0.31908181 0.94738418
-20.610151 21.81175 -99.900482 0.0071664737 -0.32636744 0.94521588
2.8178484 23.992086 -95.746216 -0.24894172 -0.25820476 0.93346584
-27.951437 21.917339 -99.597321 0.031172562 -0.30507773 0.9518171
-5.819706 22.356871 -98.059654 -0.191687 -0.28217229 0.94001853
-6.2473187 26.101027 -97.57457 -0.11715316 -0.29518083 0.9482317
-24.405115 23.503656 -99.306206 0.018630356 -0.2918267 0.95628971
18.965452 27.193531 -88.705406 -0.42560163 -0.32272038 0.84540808
8.8036375 25.638449 -93.350212 -0.31165487 -0.31257156 0.89731288
-7.4653015 26.099083 -97.038895 -0.1443577 -0.26471892 0.95345938
-13.421718 25.099289 -98.769791 -0.066517457 -0.32796952 0.94234359
-12.557846 26.577951 -98.056625 -0.11892742 -0.22383477 0.96734393
-31.190292 24.710867 -98.620735 0.054858364 -0.3046281 0.9508903
2.3083866 27.38365 -95.185013 -0.2339666 -0.26959613 0.93411857
-4.5353389 25.656075 -96.748856 -0.29637194 -0.16449444 0.94080031
-5.9573112 28.071274 -96.217201 -0.19858094 -0.25979063 0.94502616
5.9770613 26.915176 -93.95253 -0.32738724 -0.29748198 0.89684004
-1.2354395 26.085897 -95.998367 -0.1989951 -0.2651509 0.94344896
-4.4784937 27.861475 -96.67469 -0.17301932 -0.29858717 0.93856806
-10.114852 28.310331 -97.595512 -0.22108032 -0.040863082 0.97439915
-15.175488 28.986645 -97.025215 -0.0050929403 -0.43590701 0.89997733
-19.011721 25.467436 -98.616112 -0.025883578 -0.32468015 0.94546968
1.6524606 30.132551 -94.265907 -0.2437437 -0.31506798 0.91723561
-19.666307 28.672726 -97.679611 -0.066700101 -0.4342609 0.89831424
-9.2731266 29.739426 -97.476578 -0.12621458 -0.52877945 0.83932245
-5.6049747 29.956751 -95.414635 -0.17880389 -0.39014208 0.90322661
-12.445211 28.790775 -97.740105 0.1037601 -0.45610377 0.88385695
-14.542157 30.036787 -95.795113 0.02350663 -0.77221531 0.6349259
-23.872707 29.511478 -97.48175 0.00096907007 -0.41693872 0.90893406
-93.489059 -11.169895 -87.36219 0.57925761 -0.3469407 0.73762643
-40.23336 -13.929496 -110.69164 0.10166283 -0.35578659 0.9290213
-134.15802 -21.200943 -45.615383 0.39735559 -0.88116306 0.25624251
-37.887169 -4.6950617 -107.59058 0.10543078 -0.33094418 0.93774205
-33.514309 -5.9757972 -108.5275 0.084203392 -0.32778654 0.94099194
-96.268425 -13.152474 -86.278343 0.5924893 -0.36343399 0.71893823
-137.64906 -22.529282 -42.01992 0.56287616 -0.8196525 0.1064906
71.464966 18.630651 -40.740379 -0.84043401 -0.29770112 0.45281866
70.858871 17.030239 -42.589367 -0.83339721 -0.29504919 0.46732771
69.474419 25.107323 -39.803108 -0.84595752 -0.31472594 0.43046877
68.670296 23.19418 -42.790131 -0.83559948 -0.30240676 0.45861062
61.503002 24.943684 -53.334167 -0.81046617 -0.28174025 0.51358247
51.09761 26.282047 -67.242805 -0.77679306 -0.12438577 0.61734962
66.619385 26.498035 -44.323673 -0.81558216 -0.31547371 0.48507938
64.60508 25.449209 -48.032188 -0.80352515 -0.31843758 0.50293624
52.275047 27.801765 -64.835152 -0.77045679 -0.35883749 0.52690786
48.282307 28.036678 -70.384048 -0.48986709 0.29660773 0.81978911
72.357063 24.492237 -34.092999 -0.87614262 -0.3248463 0.35615885
59.243752 28.104446 -55.290424 -0.78388602 -0.30804807 0.53910023
76.496101 23.952816 -22.799992 -0.91016465 -0.30457786 0.28077146
57.193062 30.296703 -56.649326 -0.73764843 -0.38872388 0.55205846
55.230755 28.351265 -60.338707 -0.74626702 -0.35943848 0.56025845
50.098652 27.69488 -67.885773 -0.84772319 0.24597983 0.46995673
69.784683 27.973927 -37.002171 -0.86159682 -0.32680011 0.38839751
65.827553 28.891108 -43.949375 -0.80151165 -0.34193766 0.49056873
50.788338 30.398787 -70.948448 -0.86016154 0.25345805 0.44258446
48.873196 30.254009 -71.143829 -0.020359712 -0.025740318 0.99946129
74.720535 26.288929 -25.889603 -0.90002936 -0.31919202 0.29675525
72.566277 27.302719 -30.873243 -0.8827036 -0.32820275 0.33632901
67.792847 28.299589 -40.879745 -0.84362054 -0.31303361 0.43625036
53.105251 30.184309 -61.543533 -0.71027929 -0.44910726 0.5420388
50.387142 30.520981 -65.109131 -0.81545895 -0.46843591 0.33999211
50.745537 29.64263 -66.348244 -0.95361447 -0.19526553 0.22910875
50.211227 31.127439 -69.352364 -0.76411903 -0.63996947 0.081001729
63.438854 29.429539 -47.205879 -0.79780024 -0.33807656 0.4992184
61.107082 29.825605 -50.999382 -0.80832523 -0.32905269 0.48819533
47.015038 30.271797 -71.034706 -0.26383355 -0.058598012 0.96278667
43.816662 30.882608 -71.36013 -0.38322848 -0.29316965 0.8758924
41.521568 30.416414 -73.389854 -0.59982312 -0.30659068 0.7390632
38.444145 30.530645 -75.678558 -0.56455958 -0.33807912 0.75297737
-157.17905 -12.556472 38.675224 -0.92020804 -0.32239181 0.22199269
84.019653 -20.583757 -48.82029 -0.56570709 -0.76699203 0.30281776
83.473274 -18.858326 -46.131401 -0.64742124 -0.68921822 0.32530579
85.800499 -19.761915 -43.098412 -0.67261761 -0.66894257 0.31638801
79.366714 -17.618029 -51.854183 -0.74975473 -0.49320477 0.44115397
74.865402 -14.058496 -56.294559 -0.80191553 -0.33053315 0.49767396
62.616585 -14.882339 -73.719368 -0.69223398 -0.38730073 0.60894197
77.571091 -15.981936 -53.397869 -0.78119838 -0.38424703 0.49201956
53.982166 -13.952027 -81.750565 -0.60563993 -0.35234511 0.71347964
48.14806 -14.926553 -87.613007 -0.54042202 -0.50659883 0.67178982
43.833607 -15.024623 -91.182251 -0.48843557 -0.54107153 0.68459642
67.743362 -14.981203 -67.473557 -0.73207825 -0.38937119 0.55897367
44.395409 -12.937907 -89.132187 -0.54722989 -0.41269109 0.72816581
66.659157 -12.720843 -67.210243 -0.74125284 -0.35693273 0.56845695
63.24197 -12.298645 -71.142822 -0.72042447 -0.36088061 0.59224468
49.026794 -13.140076 -85.583443 -0.59805554 -0.35218218 0.71992868
23.207943 -13.999316 -101.41312 -0.37169412 -0.34705767 0.86104262
40.293545 -14.264933 -92.694016 -0.49669039 -0.38940144 0.77567077
77.216927 -11.839883 -51.09565 -0.79811126 -0.33156523 0.50307351
57.654606 -11.795863 -77.009682 -0.66148865 -0.36415648 0.65560871
35.480701 -10.349949 -93.794769 -0.4596557 -0.35206324 0.81533307
9.9523563 -15.018117 -106.88949 -0.26182783 -0.41339883 0.8720938
62.164871 -8.0510635 -70.172005 -0.71728468 -0.32490531 0.61639208
44.9259 -8.8173656 -86.856956 -0.57879287 -0.33605894 0.74300963
6.163197 -14.041289 -107.34824 -0.25523657 -0.33073184 0.90855414
52.971142 -9.545578 -80.432693 -0.63427913 -0.34310552 0.69279772
38.573559 -9.6448059 -91.607452 -0.49864382 -0.34340113 0.79588312
75.018349 -7.1529369 -51.630661 -0.80512518 -0.31438988 0.50292397
55.546711 -4.6094966 -75.48867 -0.66243774 -0.327714 0.67363179
69.289482 -8.6391516 -61.334064 -0.75484568 -0.32362574 0.57050353
67.402763 -9.1065569 -64.057442 -0.75713009 -0.32583526 0.56620264
65.452675 -9.9803038 -67.251526 -0.74675173 -0.31855914 0.58385098
59.723053 -9.7565756 -73.873802 -0.6908375 -0.34094468 0.63757366
52.325726 -4.1472812 -78.510155 -0.63892597 -0.3314437 0.69420362
42.189369 -10.10679 -89.48848 -0.53937995 -0.34119931 0.76983917
66.264496 -3.9644308 -62.742577 -0.7598983 -0.3197245 0.56597769
59.514294 -3.557512 -70.799362 -0.70842022 -0.32985643 0.62396759
75.50843 -4.3673682 -49.285713 -0.80860895 -0.32268992 0.49195811
72.328499 -2.7136898 -53.421337 -0.79774177 -0.32236314 0.50959796
63.30278 -3.3825405 -66.400734 -0.73170644 -0.32481694 0.59924924
47.533199 -5.1091352 -83.104897 -0.60539263 -0.33347186 0.72270072
35.832581 -7.330442 -92.378181 -0.48062095 -0.32981041 0.81254452
72.371719 -0.4884274 -51.632488 -0.80225337 -0.3177284 0.505409
64.794495 0.092911109 -62.376831 -0.75374973 -0.31904027 0.5745213
57.200962 -3.4290264 -73.34243 -0.68300086 -0.32854241 0.65235698
43.364212 -5.0752878 -86.389069 -0.57017523 -0.33207867 0.75141454
40.715485 -1.4922082 -86.812431 -0.56594646 -0.32239032 0.75879449
39.543365 -5.2744775 -89.228966 -0.52328479 -0.32367292 0.78829497
29.171951 -0.71697086 -93.525093 -0.4442775 -0.31411693 0.83901614
74.068504 -0.093352899 -48.850578 -0.82809621 -0.32102659 0.45956364
35.87389 -3.0651467 -90.611221 -0.48122445 -0.3192021 0.81641477
70.375656 1.9996157 -53.493549 -0.80127466 -0.31164566 0.51072091
61.046761 2.4366589 -65.969849 -0.73483992 -0.32412392 0.59578013
45.153435 -0.22279416 -82.83992 -0.59134126 -0.32670185 0.73727983
37.496201 0.87899333 -88.147552 -0.52661479 -0.31476825 0.78968209
35.176003 1.5159775 -89.219955 -0.47931409 -0.3153033 0.8190493
57.793369 0.71113545 -70.526985 -0.70312381 -0.32085451 0.63456237
51.670128 0.99410838 -76.586899 -0.65161651 -0.32411903 0.68581533
-29.723835 -12.575917 -110.9978 0.061969116 -0.32916465 0.9422369
53.790226 3.7707331 -73.22554 -0.66790712 -0.31983209 0.67201746
44.190517 4.2037344 -81.664177 -0.60299271 -0.31768158 0.73176372
-33.556976 -12.352583 -110.80483 0.062237475 -0.33659163 0.93959165
49.082706 -2.0671818 -80.324829 -0.6181646 -0.32537258 0.71554542
70.025604 6.4279389 -51.112762 -0.79997343 -0.30762163 0.51518101
59.614773 4.4092703 -66.670395 -0.72573316 -0.31616539 0.61102444
33.64222 4.0421276 -89.172531 -0.48236942 -0.31077904 0.81898481
68.153923 5.8818288 -54.388023 -0.78576064 -0.31999481 0.52932358
63.251923 4.9792132 -61.644878 -0.74260688 -0.31437331 0.59135807
48.843327 4.8832636 -77.500504 -0.62980288 -0.31430563 0.71032411
30.144289 4.2479048 -91.144226 -0.4541592 -0.31355178 0.83392119
59.309887 9.0791407 -64.522346 -0.74122447 -0.30516356 0.59788078
65.470589 5.6356139 -58.682476 -0.76238894 -0.31775567 0.56373256
40.868855 3.7831566 -84.479248 -0.5767132 -0.312906 0.75464678
55.252502 10.695805 -68.497643 -0.70182514 -0.30147064 0.64541221
56.241806 5.0100217 -70.128059 -0.69239187 -0.30979913 0.65162718
43.409184 7.4552727 -80.933022 -0.60261834 -0.30746517 0.73642123
38.386047 11.022029 -83.413765 -0.57271808 -0.31155053 0.75824159
49.322464 8.3522062 -75.44516 -0.65426207 -0.30625919 0.69148129
42.241249 9.4130592 -81.065742 -0.59168112 -0.31041995 0.74401134
36.657253 6.9610925 -86.317223 -0.53017592 -0.30664617 0.79049456
74.42617 7.6443214 -42.367249 -0.83518499 -0.31690773 0.44948354
53.355087 9.324852 -71.050171 -0.67431706 -0.30352253 0.67317939
45.094986 10.156658 -78.417351 -0.61565417 -0.31074527 0.72415984
56.290329 13.1207 -66.331779 -0.73542571 -0.30359223 0.60578936
23.056551 11.591849 -92.175507 -0.42106462 -0.31240448 0.85153276
69.223732 9.891963 -50.469292 -0.80744624 -0.30840781 0.5029068
66.709724 10.249125 -53.94455 -0.78476149 -0.3047502 0.53970063
64.523926 10.244198 -57.066055 -0.77635235 -0.32191265 0.5418942
64.541969 13.521772 -55.156902 -0.77330494 -0.31742638 0.54885328
51.051067 12.615909 -71.996223 -0.67532206 -0.28813094 0.67891133
47.32164 12.11475 -75.685287 -0.62900054 -0.29912448 0.71755344
60.469311 11.812123 -61.637367 -0.74943644 -0.31021985 0.58490056
47.945095 15.691718 -73.603104 -0.63694459 -0.28779599 0.71517485
61.955589 13.042458 -59.123066 -0.76726532 -0.30520242 0.56405264
42.083797 13.093858 -79.644073 -0.5982846 -0.30486143 0.74102294
43.352238 17.101015 -77.027428 -0.60895443 -0.29271781 0.7372182
67.39238 14.844278 -50.432037 -0.79464328 -0.31035894 0.52174646
50.419239 17.309923 -70.720261 -0.6837424 -0.2820158 0.67302561
33.9086 12.131632 -86.205414 -0.53727877 -0.30553323 0.78611767
62.639881 17.964317 -55.203934 -0.77709252 -0.30713832 0.5493573
57.912056 17.023008 -62.160347 -0.74660689 -0.28955349 0.59894651
31.907679 14.792851 -86.480934 -0.48733076 -0.30624259 0.81775558
65.492371 19.348783 -50.630852 -0.79545039 -0.31592807 0.51715398
54.252258 16.586061 -66.87236 -0.7103852 -0.29442242 0.63927174
38.787395 15.706988 -81.175888 -0.57142127 -0.30615836 0.7614097
60.342007 17.892735 -58.740326 -0.77322936 -0.29508162 0.56128705
67.795609 21.54994 -45.315556 -0.82139504 -0.30182528 0.48395416
57.94709 22.554457 -59.626286 -0.77767456 -0.25117832 0.57630879
44.430454 20.479855 -74.793762 -0.62608701 -0.25915441 0.73542786
37.144657 20.206543 -80.576813 -0.56344938 -0.29997692 0.76976526
48.74205 20.305 -71.083313 -0.66036952 -0.26968148 0.70084524
29.516098 17.966167 -86.672287 -0.46109408 -0.31158528 0.83084708
59.153545 24.109522 -57.296951 -0.79270041 -0.27013707 0.54649055
39.558186 20.021271 -78.943291 -0.58196121 -0.29887149 0.75630486
63.241615 21.966801 -52.279301 -0.78747308 -0.29929188 0.53880459
56.241375 21.272909 -62.486927 -0.75299913 -0.24090421 0.61233771
53.127514 20.296743 -66.515564 -0.7217114 -0.25769851 0.64243615
34.247528 18.831066 -83.213791 -0.5418238 -0.31293771 0.7800622
60.719921 20.892609 -56.435417 -0.79450166 -0.27565184 0.54109454
27.920036 22.497974 -85.776726 -0.45569265 -0.33169749 0.82602721
40.943073 22.481937 -76.839859 -0.58129525 -0.27485579 0.76586556
50.198429 22.806898 -68.759956 -0.69684196 -0.22971261 0.67944342
31.025719 21.205299 -84.434471 -0.506706 -0.31499639 0.80251253
25.489668 21.470474 -87.38205 -0.4285717 -0.31179649 0.84800309
19.693008 22.317736 -89.884369 -0.42697302 -0.28591138 0.85787445
52.866661 25.020262 -65.077911 -0.74218863 -0.20280477 0.63876933
49.094677 24.669958 -69.332199 -0.69090652 -0.10001969 0.7159918
46.650162 22.865915 -72.06041 -0.66041309 -0.22812717 0.71541077
57.201134 25.313301 -59.750866 -0.77655637 -0.29550034 0.55645275
45.871162 26.118906 -71.698761 -0.55080366 -0.14410587 0.82210034
39.338181 26.528057 -76.805359 -0.57537186 -0.29146254 0.76419681
33.859577 25.143438 -80.9748 -0.53573716 -0.30215392 0.78847247
54.67997 25.48044 -62.812023 -0.75845122 -0.26372051 0.59598929
48.437416 26.252445 -70.148956 -0.67943132 0.020207359 0.73346078
44.22702 23.282627 -74.299187 -0.60222191 -0.27000108 0.75128442
42.54211 25.42798 -74.562851 -0.59174591 -0.29821286 0.74893647
36.82198 25.216318 -78.941208 -0.55173784 -0.28520921 0.78373533
31.509405 27.632662 -81.68 -0.49179482 -0.32684457 0.80703807
27.380724 25.387318 -84.870285 -0.45567814 -0.33427694 0.82499474
44.054348 28.568628 -72.030647 -0.49614483 -0.27903259 0.82218075
33.289127 29.376278 -79.765991 -0.51350224 -0.32779631 0.79301006
29.080931 28.453983 -82.58477 -0.45070279 -0.3704181 0.81219292
35.608803 29.927526 -78.042572 -0.53738016 -0.30321324 0.78694624
-145.34546 -21.614056 -32.917091 -0.33061993 -0.93917286 -0.092977904
-147.20808 -21.534708 -28.419008 -0.30271083 -0.95158428 -0.053417362
-146.26408 -21.478666 -26.775406 -0.020449929 -0.99874133 0.045799349
-147.54543 -21.351013 -24.563822 -0.24797025 -0.9687525 -0.0054081907
-149.35271 -21.165863 -17.241644 -0.29636985 -0.95474327 -0.025105419
-149.2068 -21.050179 -20.989069 -0.30142328 -0.95257396 -0.041795641
-149.83347 -21.045492 -14.951572 -0.28561223 -0.95829731 -0.0095889904
89.743507 -21.892437 -41.896381 -0.38281053 -0.90448254 0.18806228
32.949032 -0.79524398 -91.474968 -0.47325528 -0.31416234 0.82300144
17.725132 20.269552 -91.648148 -0.40694454 -0.29765394 0.86359608
36.446827 -14.815635 -95.315575 -0.44839415 -0.37354949 0.81203663
33.326492 -15.137993 -97.355331 -0.37815422 -0.49588504 0.78172719
87.264771 -21.017647 -43.417957 -0.52183217 -0.80240238 0.28955409
100.33459 -22.386566 -17.79487 -0.23594654 -0.97175306 0.0050310809
98.940849 -22.043081 -16.813993 -0.39691368 -0.91413176 0.082599893
93.324341 -21.90151 -33.570621 -0.42690375 -0.88222295 0.19858436
92.536957 -22.171761 -36.47068 -0.44479546 -0.88305449 0.14957207
90.545357 -19.546551 -31.269419 -0.71308571 -0.6572814 0.24390551
91.762138 -18.987207 -25.94581 -0.72094244 -0.6542505 0.22846949
89.496559 -16.166212 -27.433102 -0.87425673 -0.40925324 0.26112643
94.659607 -15.993425 9.7694426 -0.86368591 -0.5036276 -0.020144144
95.727562 -18.430487 -2.6590438 -0.79297423 -0.60656613 0.05717811
92.924957 -17.309252 -16.102707 -0.7928502 -0.58429247 0.1731784
88.920235 -17.32725 -31.191486 -0.8203969 -0.49521214 0.28585622
95.441658 -17.699972 2.8784521 -0.77091664 -0.63632196 0.027962998
94.627594 -17.637899 -6.943172 -0.84082055 -0.52972442 0.11141206
91.431587 -17.420824 -22.923397 -0.82136828 -0.52920365 0.21283253
84.660156 -16.927536 -40.823483 -0.8184517 -0.43098861 0.37998125
93.487442 -14.193292 -2.1514616 -0.91283596 -0.40328407 0.063972175
92.727074 -15.193466 -12.101715 -0.90180087 -0.40697953 0.14533746
86.289589 -16.434654 -36.718693 -0.82321823 -0.45544821 0.33893758
83.535278 -17.195675 -43.586727 -0.80656523 -0.43835348 0.39660895
93.708839 -14.233281 3.9616873 -0.91272378 -0.40776405 0.02576548
81.54097 -17.778627 -48.101761 -0.77469075 -0.4840408 0.40688923
92.92067 -13.786977 -6.3839869 -0.91969454 -0.37708551 0.10940073
91.502518 -15.217738 -18.351826 -0.91128576 -0.36031374 0.19932961
90.338394 -14.623015 -22.292784 -0.9014771 -0.3614684 0.23807451
81.944794 -21.064314 72.689568 -0.18668261 -0.9778111 -0.09505292
93.516441 -13.624007 7.4389496 -0.92429113 -0.3812398 0.018498113
83.311653 -12.782784 -40.197865 -0.85467511 -0.34491813 0.38802317
78.881859 -20.584778 73.772133 -0.40173569 -0.87579751 -0.26755768
88.223877 -12.479986 -27.194172 -0.89874619 -0.34196141 0.27444041
88.68644 -11.365221 -23.940872 -0.90977281 -0.34496126 0.23090082
90.97654 -11.441282 -13.821601 -0.92423725 -0.34464487 0.16433351
87.112747 -13.860593 -32.060356 -0.87842727 -0.35690638 0.31777871
79.696777 -14.359351 -48.769234 -0.82176065 -0.34040329 0.45698464
80.06768 -12.588051 -46.488445 -0.83927977 -0.33924308 0.42488074
92.17038 -9.9819574 6.6844115 -0.94519651 -0.32616153 0.014906753
90.877518 -9.2076845 -8.6217175 -0.93227017 -0.33989155 0.12387898
86.389671 -10.194277 -29.909611 -0.88924551 -0.33707789 0.30922639
76.102264 -19.556355 75.114548 -0.50603753 -0.78260326 -0.36257151
92.164635 -10.369747 1.5850786 -0.93862027 -0.34320766 0.03464793
84.820045 -12.188076 -36.225739 -0.8705619 -0.33396778 0.36136883
91.815414 -9.951272 -3.0732448 -0.93719143 -0.34088013 0.073979847
88.798096 -8.1417456 -18.612059 -0.91809815 -0.33402744 0.21335757
83.717659 -7.0895119 -34.26236 -0.88656497 -0.32460678 0.32959527
82.238197 -6.5850635 -37.466721 -0.86229998 -0.32072541 0.39188522
59.992279 -14.7098 -76.456123 -0.66287446 -0.41316426 0.62441391
87.078506 -8.1639757 -25.356279 -0.9081201 -0.33360389 0.25303411
81.491928 -11.899727 -43.300064 -0.84380919 -0.34268889 0.41297752
79.315735 -9.2823887 -45.572552 -0.84494364 -0.32585976 0.42412934
81.487862 -9.4163265 -41.134106 -0.85713011 -0.32538036 0.39931896
79.651314 -5.4776344 -41.945442 -0.8500973 -0.32574698 0.41379175
71.663788 -9.0085154 -58.411682 -0.79102409 -0.33166927 0.51407826
56.652264 -14.404957 -79.735184 -0.64219785 -0.39194235 0.65875882
90.915817 -6.4240837 3.2636685 -0.94656771 -0.32108018 0.03028496
90.008049 -4.8892155 -3.7821276 -0.94265026 -0.32085067 0.092006542
89.181107 -4.1656051 -8.3865623 -0.93701959 -0.32460514 0.1289414
74.458374 -10.039856 -54.408043 -0.80439866 -0.32103637 0.49987853
88.897232 -5.7226887 -13.926766 -0.93152928 -0.32728502 0.15854834
77.165718 -8.0437841 -48.992493 -0.82684922 -0.32060912 0.46209323
66.133209 -15.607743 82.235916 -0.63775969 -0.55010104 -0.53912091
70.069977 -17.262573 79.134384 -0.6447708 -0.57986993 -0.49801749
85.379135 -5.1759825 -27.501631 -0.89865708 -0.32776502 0.29152286
70.507179 -15.914823 76.895355 -0.67054325 -0.51608914 -0.53293878
85.168549 -1.216969 -23.306576 -0.91331542 -0.32410479 0.24659921
83.688873 -2.931597 -29.959463 -0.89596158 -0.32141581 0.30650398
90.326477 -4.80791 6.4327583 -0.9423852 -0.33441752 0.008659902
80.563515 -1.5575467 -36.883869 -0.86644065 -0.32014912 0.38312554
77.066711 -4.2753744 -46.148003 -0.84367216 -0.32492715 0.42736366
87.505974 1.0677465 -6.7264943 -0.93793458 -0.31867963 0.13682842
87.589104 -0.11591636 -9.7796993 -0.93587106 -0.32520634 0.13559563
86.986626 -2.4100854 -17.640217 -0.9223603 -0.32552993 0.2080427
78.682922 -2.4571416 -41.588268 -0.85237521 -0.31296283 0.41893995
69.350288 -4.8017569 -59.109165 -0.76927036 -0.32713073 0.54882473
88.842461 -0.42638922 4.6086378 -0.94928634 -0.31424534 0.010258771
85.149437 1.260929 -19.938675 -0.92072892 -0.32127362 0.22145312
82.145576 -1.1788399 -32.762245 -0.88744289 -0.32066339 0.3310892
88.338097 0.11134789 -3.7367053 -0.94255936 -0.32507136 0.076879099
83.344032 -0.21712261 -28.147791 -0.90080667 -0.32235894 0.29091585
70.961357 -3.3127165 -55.552353 -0.79657835 -0.32122785 0.51212841
86.632217 0.3476519 -14.703786 -0.92835855 -0.32686228 0.17695032
76.265366 2.2443047 -42.940765 -0.840689 -0.3181034 0.43823758
89.014725 -0.82085931 2.4539721 -0.94418406 -0.32694632 0.040280286
85.501801 3.8540649 -14.208904 -0.93115604 -0.32244635 0.17022571
33.370934 -12.753792 -95.821426 -0.43190274 -0.36354816 0.82540464
87.665527 3.1849382 4.7245636 -0.94814461 -0.31635812 0.030648261
85.975571 6.7034402 -5.1616669 -0.94158292 -0.31674784 0.11442154
68.803162 -1.1026179 -57.684895 -0.78100979 -0.31043106 0.54190063
86.031364 6.6800017 -2.7085979 -0.94706529 -0.31359208 0.068755858
80.785118 3.9481964 -31.317064 -0.89531779 -0.31937361 0.31049392
77.840378 5.0896702 -37.550377 -0.87206197 -0.30926615 0.37929192
73.340675 2.5902817 -48.295162 -0.81995839 -0.31427211 0.47843635
80.494331 7.0783448 -28.936626 -0.90037304 -0.32325912 0.29125917
79.646683 3.5554376 -34.688068 -0.87753934 -0.316093 0.36056891
73.035294 6.5985279 -45.961658 -0.84436309 -0.31343737 0.43452042
77.944504 1.8364434 -39.96545 -0.86023462 -0.30616471 0.40774938
67.906212 3.3804162 -56.20768 -0.78964186 -0.32629615 0.51961195
82.352272 5.3184185 -25.150379 -0.90849739 -0.3220748 0.26627135
78.9655 7.0821252 -33.348026 -0.88488883 -0.31703126 0.34126684
86.446655 7.0128374 5.4164238 -0.95014644 -0.30953863 0.03751877
85.867752 7.9810414 1.6436025 -0.94536585 -0.32438913 0.032482326
81.762177 9.5297918 -21.876963 -0.91097152 -0.32407644 0.25515744
86.139084 7.6039467 -0.17948279 -0.94674683 -0.31640247 0.05966448
85.029594 7.6528354 -8.8546982 -0.93692815 -0.31776929 0.14556172
83.57534 7.1097789 -18.192913 -0.92348331 -0.32017672 0.21134202
83.672966 13.131956 -5.8809037 -0.93954307 -0.32536173 0.10676417
77.206726 8.761857 -36.124256 -0.88204032 -0.31233895 0.35277343
71.438156 6.5691056 -48.977863 -0.81879401 -0.31044409 0.48290876
84.172264 8.7654333 -11.97481 -0.93343985 -0.32028458 0.16157979
76.374115 6.8447027 -39.584232 -0.84857553 -0.30967906 0.42897367
74.007156 9.9959068 -41.671486 -0.84079313 -0.30856553 0.44480807
71.879333 10.940049 -45.201981 -0.83072227 -0.32419708 0.45254481
84.608383 11.674521 0.95289886 -0.9450264 -0.32216159 0.056008153
83.92189 14.559904 3.3992076 -0.94816548 -0.31493458 0.042407963
78.941086 10.93891 -29.526112 -0.89826655 -0.32079834 0.30034265
76.825386 14.982888 -31.346134 -0.89117199 -0.31804386 0.32351264
79.979675 14.373575 -22.253105 -0.91276413 -0.3171322 0.25746617
75.210579 12.498717 -37.719086 -0.85013449 -0.31409967 0.42262605
82.190262 12.800851 -15.443917 -0.92717886 -0.31683931 0.19988102
69.647507 13.23394 -47.450802 -0.82995307 -0.32006881 0.45687407
83.346283 15.053297 -1.6756392 -0.94218361 -0.32422999 0.084646404
75.146423 15.31052 -35.564346 -0.87980789 -0.31813863 0.35316554
81.721977 17.916536 -7.7837896 -0.93734664 -0.32967108 0.11268608
77.713387 16.863802 -26.741938 -0.90195078 -0.32020953 0.2897425
82.172607 15.19354 -10.725525 -0.93741405 -0.31415701 0.15020084
79.657974 18.2041 -18.441566 -0.92444235 -0.3127667 0.21813592
82.946846 17.345621 4.9269881 -0.94627249 -0.32336617 0.0016125485
80.727867 21.521553 -5.0097852 -0.93746787 -0.33472195 0.095473066
80.99118 17.375071 -13.773499 -0.93137199 -0.31641594 0.18007544
82.708183 17.799383 1.6981666 -0.94255519 -0.32525533 0.076149255
79.74527 22.286911 -11.421472 -0.93375611 -0.32520485 0.14946978
75.532936 18.97205 -30.92135 -0.89106905 -0.31949908 0.32236046
34.456623 7.7365799 -87.308083 -0.48216635 -0.28654608 0.82789302
73.5187 16.177488 -38.339611 -0.85519481 -0.31159276 0.41418806
68.314804 18.202175 -46.527954 -0.83044535 -0.30865142 0.46378314
29.593723 8.2770405 -89.970688 -0.46050093 -0.29776448 0.83622682
81.534515 21.542593 2.8996444 -0.93467045 -0.35255331 0.04579746
77.580528 21.503138 -21.810062 -0.9102692 -0.31264299 0.27141166
75.137131 22.905519 -28.187033 -0.89733964 -0.31498587 0.30913687
73.162354 21.324512 -34.985935 -0.87600619 -0.32120237 0.35978085
70.886665 23.123924 -38.541142 -0.85557634 -0.31973967 0.40713122
80.057266 24.441006 -0.5912708 -0.92523402 -0.37285286 0.070162833
79.175957 25.355646 -7.0425448 -0.93396616 -0.34110412 0.10656025
78.021004 25.55382 -14.566576 -0.93049836 -0.32206288 0.17449446
77.205956 25.525665 -18.638308 -0.92067361 -0.30642796 0.24178946
-153.72386 -18.433596 38.078789 -0.65277106 -0.74306506 0.14745933
84.141861 -21.499798 68.495476 -0.4058919 -0.88951981 -0.20977668
99.089828 -21.166477 25.504868 -0.3523148 -0.93379617 -0.062441304
102.05284 -21.797897 21.942268 -0.30173588 -0.9523856 -0.043785233
82.027489 -20.829655 70.113213 -0.36228511 -0.91164196 -0.19405809
97.886047 -20.385485 19.934967 -0.43111083 -0.90117526 -0.045018151
81.885071 -20.123617 67.026642 -0.46229583 -0.8513847 -0.24784422
102.11386 -21.821993 2.0759053 -0.28172967 -0.95869899 0.039046951
79.89698 -19.837353 70.175392 -0.48245856 -0.82957947 -0.28112537
100.33347 -21.600832 -2.9399037 -0.41798466 -0.90713871 0.048869073
78.082779 -18.89012 70.620735 -0.54220837 -0.76373398 -0.3503148
99.628998 -21.82373 -12.176953 -0.43948269 -0.89418 0.085423239
75.208511 -17.929392 73.136658 -0.62014747 -0.65872461 -0.42602709
80.831543 -16.278482 61.964951 -0.76489753 -0.49434903 -0.41297796
87.077904 -17.62781 50.793995 -0.81187767 -0.49291563 -0.31287169
94.438087 -19.581751 32.716015 -0.60870689 -0.78201985 -0.13386899
95.463806 -18.542135 21.286522 -0.75598979 -0.64763588 -0.095117092
98.686157 -20.606607 4.775907 -0.52170181 -0.85293376 0.018200386
96.213394 -18.907579 17.598713 -0.73318911 -0.67667925 -0.067371026
88.473808 -15.447696 43.611217 -0.87590063 -0.37985721 -0.2975007
97.387321 -20.158131 -4.4909201 -0.60189319 -0.79586494 0.065754697
96.338188 -22.012167 -25.68726 -0.34548965 -0.93071961 0.11999074
75.685951 -16.940712 70.882866 -0.70527118 -0.52314967 -0.4784424
85.516548 -14.243976 50.114746 -0.85919929 -0.38789883 -0.33363312
89.613312 -14.624898 38.505894 -0.87317002 -0.41099599 -0.26202363
93.964569 -17.35602 24.880259 -0.83416301 -0.53306592 -0.14146687
82.968651 -17.341787 58.979183 -0.76263082 -0.52228856 -0.38158724
90.280937 -16.943092 40.468945 -0.80694443 -0.52373791 -0.27301887
92.21978 -16.335369 31.39562 -0.87173909 -0.45412409 -0.18396249
93.113731 -13.098849 15.49434 -0.93077868 -0.36179802 -0.052471157
94.026756 -15.819383 17.504641 -0.88488483 -0.45947954 -0.076534137
73.039879 -18.543158 76.916832 -0.61596531 -0.62172157 -0.48378611
80.827026 -12.403944 58.504543 -0.82804894 -0.36676157 -0.42405289
93.245888 -15.389885 22.608889 -0.89230865 -0.4341684 -0.12362441
94.100876 -19.795362 -21.248619 -0.64786142 -0.7418974 0.17281137
93.9981 -21.255621 -27.406235 -0.46893138 -0.87263894 0.13639899
91.61425 -21.1789 -35.054298 -0.51983935 -0.82600081 0.21792135
68.140518 -13.054118 77.788132 -0.71683067 -0.37162867 -0.58995426
92.246475 -20.874245 -31.025352 -0.50746423 -0.84352458 0.17591588
92.015129 -14.595109 27.937737 -0.9056164 -0.3970933 -0.14891562
83.570908 -10.244392 51.104553 -0.85880077 -0.35314235 -0.37114924
91.836655 -10.152554 17.281233 -0.93487769 -0.34592274 -0.079631209
66.759171 -14.848595 80.720818 -0.6773504 -0.46779969 -0.5677675
90.285133 -13.756684 34.716244 -0.89327073 -0.39190981 -0.22016849
89.720596 -9.70784 30.566515 -0.91924089 -0.34537303 -0.18898064
94.311432 -16.003876 0.47738737 -0.90413344 -0.42648607 0.02554238
85.522484 -10.389195 46.062763 -0.87970841 -0.34894612 -0.32303214
88.553886 -9.2647009 34.93943 -0.91259724 -0.33651292 -0.23221827
87.467209 -9.8684244 39.843513 -0.89951283 -0.34185901 -0.27204621
89.019569 -19.643333 -35.732166 -0.69784725 -0.66558588 0.26458395
83.226791 -7.1440487 48.715881 -0.87177032 -0.34476674 -0.34806946
91.766441 -11.613238 22.766861 -0.92658001 -0.35102135 -0.13503101
61.210979 -13.294806 85.680038 -0.68079847 -0.33957773 -0.64899963
62.827648 -13.913527 84.284531 -0.67902577 -0.3694579 -0.63436961
90.421959 -9.5089512 26.076401 -0.92779583 -0.34003758 -0.15352248
90.63121 -8.0446577 21.30669 -0.9350251 -0.33064437 -0.12807213
84.931046 -4.4912624 41.58736 -0.89198023 -0.33779213 -0.3004458
86.356911 -6.2524276 38.887058 -0.90556079 -0.34126791 -0.25198388
78.348885 -8.3609438 60.059555 -0.83538902 -0.34456944 -0.42824891
92.007072 -9.8747597 12.461266 -0.9351874 -0.35022447 -0.052607011
80.707199 -7.8732033 54.910172 -0.84464622 -0.34505537 -0.40927938
86.848434 -3.8526397 33.944973 -0.913845 -0.33966523 -0.22251919
84.230927 -5.8627176 44.548759 -0.87779558 -0.34077257 -0.33667338
89.816879 -3.9723198 -0.46821186 -0.94417328 -0.32555947 0.050476678
88.85128 -6.0775814 28.418175 -0.92922997 -0.32938549 -0.1674421
89.58712 -4.6507006 20.687845 -0.93827832 -0.32521242 -0.11777358
74.604767 -2.9409893 62.785385 -0.80746979 -0.34124732 -0.48118895
88.357422 -2.8299172 24.306137 -0.93281883 -0.32788688 -0.14946362
77.495285 -1.5427442 56.2402 -0.83958781 -0.33924532 -0.42427
81.351341 -3.1976938 49.630085 -0.86687016 -0.33239686 -0.37154865
84.020927 -1.1358067 40.392628 -0.8996377 -0.33263764 -0.28284997
89.728241 -4.406342 17.738136 -0.94008774 -0.32928622 -0.088349655
85.107033 -0.62980419 35.718323 -0.91159606 -0.33240467 -0.2418673
82.248421 -0.083004348 44.167427 -0.88483137 -0.33059147 -0.32830295
89.224213 -1.2944014 8.9270916 -0.94860673 -0.3159557 -0.017810903
88.234421 -0.91848236 20.723665 -0.93635291 -0.33314332 -0.11071866
79.226326 -1.3992987 52.671967 -0.84811789 -0.34029314 -0.4060747
80.576385 0.51321995 48.0443 -0.86515939 -0.33886597 -0.36968771
87.149498 -1.4712346 28.691299 -0.92441916 -0.3309294 -0.18956481
85.633148 3.2117043 27.944071 -0.92962718 -0.32158989 -0.17992571
83.075455 2.775676 38.943211 -0.89720398 -0.33429092 -0.28857347
87.676498 2.1232245 15.756187 -0.9435848 -0.32058436 -0.0829065
82.667725 5.7897015 36.269375 -0.9067964 -0.33317679 -0.25828955
88.856033 -0.63283718 12.437068 -0.94638813 -0.31887019 -0.051684435
87.366646 3.834523 11.161245 -0.94591171 -0.32115889 -0.045912445
75.843399 3.4376762 55.566761 -0.8423506 -0.3381111 -0.41967416
79.796234 5.6693578 45.112457 -0.87992024 -0.33231437 -0.33956957
84.424599 3.5310276 32.884087 -0.9191432 -0.32040265 -0.22916776
77.798279 7.4167528 48.354454 -0.85795438 -0.33333504 -0.39089915
86.68029 2.75861 22.50576 -0.93741423 -0.32058075 -0.13595091
88.171333 0.73444068 -0.49766245 -0.94723415 -0.31492722 0.059735373
81.078812 6.8542328 40.074554 -0.89159089 -0.34124398 -0.29768822
87.409767 4.1298819 7.7873535 -0.94869971 -0.31612962 -0.005560406
83.708664 6.8249216 31.12121 -0.9196927 -0.32747886 -0.216617
75.133339 7.7490058 53.445221 -0.8455624 -0.33460954 -0.41600573
85.033409 6.5761251 25.000547 -0.93248045 -0.3207342 -0.16616209
78.104469 10.880715 44.339622 -0.87939417 -0.33617643 -0.33712202
85.869522 7.7945018 14.155569 -0.9466666 -0.31644365 -0.060711019
81.681892 10.697989 33.45047 -0.90828341 -0.3318156 -0.25479326
83.560699 10.770524 25.083248 -0.9318288 -0.32279247 -0.16583177
85.80336 6.9286666 18.88658 -0.94299877 -0.31626144 -0.10359537
84.972458 11.084553 10.552416 -0.94595861 -0.3217327 -0.040626876
84.79438 8.5837402 21.7647 -0.93888533 -0.31880572 -0.12983567
75.543488 11.775703 49.376507 -0.85491294 -0.33868104 -0.39296192
80.342194 10.057137 38.705162 -0.89746344 -0.33315513 -0.28907961
84.437538 11.809257 15.818887 -0.94366121 -0.32129973 -0.079183422
86.037491 8.2397242 7.2008481 -0.94760936 -0.3183839 -0.025850197
72.061729 12.87394 55.671539 -0.84327084 -0.32829532 -0.42557785
76.954414 14.716036 43.636765 -0.88001764 -0.33595821 -0.33570984
82.966522 10.154833 29.043209 -0.92160851 -0.3282313 -0.20712779
74.419724 14.875137 49.195782 -0.85506845 -0.32794064 -0.40163764
79.238609 14.258281 37.232494 -0.89708233 -0.33717689 -0.28557849
83.330948 13.56179 20.664335 -0.93855911 -0.3176128 -0.13501403
82.879684 16.911888 11.85185 -0.94698811 -0.31841576 -0.04271853
71.758194 16.961676 52.975758 -0.85096782 -0.32257605 -0.41448569
85.080254 11.201973 5.022531 -0.94876504 -0.31566951 0.014062227
70.632881 15.9926 56.226429 -0.82271397 -0.33623534 -0.45835298
82.768272 16.194921 17.666363 -0.94333434 -0.31872192 -0.09239389
80.276314 15.046311 32.893734 -0.90889454 -0.33832791 -0.24381332
81.806595 17.100039 22.572842 -0.9340086 -0.32612815 -0.14583643
81.13472 16.9666 26.402767 -0.92318344 -0.3317062 -0.19417349
76.29274 18.709391 41.030361 -0.89143687 -0.33451626 -0.30567834
76.766121 21.665434 36.17371 -0.90175396 -0.33297157 -0.27562609
69.785683 20.562525 54.216522 -0.83357698 -0.32193822 -0.44889319
74.478767 19.108782 45.456543 -0.86732292 -0.33747762 -0.36586854
81.123711 20.132914 20.105833 -0.93575406 -0.32453096 -0.13799974
82.204308 19.027069 13.853979 -0.94566214 -0.31792617 -0.068161778
82.951736 17.254896 7.7967024 -0.94558561 -0.32431737 -0.026194001
78.647728 21.800722 29.299814 -0.9120844 -0.33510336 -0.2362366
78.990669 23.0842 26.065882 -0.92284811 -0.33399481 -0.19182986
81.308258 22.027609 8.6287842 -0.94491851 -0.32681999 -0.017821025
70.231316 23.398413 51.431412 -0.86473149 -0.31289989 -0.39285269
71.971458 24.302155 46.430233 -0.86661357 -0.33649424 -0.36844614
80.460419 22.630888 19.208696 -0.93224233 -0.33072838 -0.14677499
80.610115 23.813608 11.160583 -0.94365114 -0.32846385 -0.040421892
78.40432 26.148464 23.127592 -0.92226696 -0.34648743 -0.17137732
79.325325 26.012564 18.303339 -0.93114114 -0.34729716 -0.11117893
80.75341 22.760265 15.217968 -0.93980706 -0.33311611 -0.076133095
79.549789 26.001976 15.066955 -0.93600959 -0.34649587 -0.061860021
80.24498 24.747618 7.4425478 -0.92015672 -0.39046559 0.029125109
73.033585 13.610957 -40.922462 -0.83485234 -0.3134419 0.45252153
80.297073 25.110519 8.9392719 -0.94546992 -0.32495236 -0.02219253
-151.92897 -20.21734 4.8692913 -0.06761875 -0.99713659 0.033858303
