# .PCD v0.7 - Point Cloud Data file format
VERSION 0.7
FIELDS x y z normal_x normal_y normal_z
SIZE 4 4 4 4 4 4
TYPE F F F F F F
COUNT 1 1 1 1 1 1
WIDTH 719
HEIGHT 1
VIEWPOINT 0 0 0 1 0 0 0
POINTS 719
DATA ascii
87.094894 -62.151211 -38.269447 -0.095110632 0.60713261 -0.7888878
-32.792221 -19.629595 -58.938004 -0.42027631 0.28931016 -0.86003923
-41.518223 -21.046162 -54.361874 -0.5563848 0.28044519 -0.78216779
82.869926 -62.469467 -37.962475 -0.022237923 0.74205345 -0.66997176
-46.250252 -21.663721 -50.919979 -0.63023573 0.27078405 -0.72765303
81.835861 -66.049988 -41.638721 0.12443007 0.65064526 -0.74911809
-35.009159 -22.983534 -58.966404 -0.44716251 0.28968519 -0.84624356
-39.086327 -22.825033 -56.499424 -0.49627015 0.28317797 -0.82068646
-2.5865788 -27.912663 -68.156509 0.075245559 0.32296586 -0.94341463
-26.802681 -22.046083 -62.402409 -0.39421165 0.28590566 -0.87341577
-29.201258 -23.291559 -61.72752 -0.39158183 0.29126382 -0.87282819
-35.487141 -27.886782 -60.361561 -0.45226341 0.28696519 -0.84445763
-31.196863 -26.668751 -62.056805 -0.39762205 0.29555732 -0.86864412
-40.337189 -27.425304 -57.408104 -0.51731342 0.28185818 -0.80804873
-2.6890326 -34.50906 -70.420357 0.095401295 0.32583013 -0.9406026
-44.591404 -27.576912 -54.415558 -0.5855546 0.2741819 -0.76285654
-27.019609 -28.039957 -64.297073 -0.37511814 0.28875917 -0.88085437
-50.506454 -29.842951 -50.137684 -0.66517627 0.26517132 -0.69801474
-33.567387 -32.05941 -62.733765 -0.42533788 0.28149521 -0.86014426
-30.459381 -32.108189 -64.157166 -0.37804595 0.28106344 -0.88209099
-43.791607 -33.798168 -57.244007 -0.55959553 0.27017581 -0.78349078
-38.514702 -32.976326 -60.426624 -0.48965478 0.27596381 -0.82709259
-40.996395 -36.856937 -60.159901 -0.51243973 0.26797384 -0.81584042
-44.928917 -37.067051 -57.484108 -0.58631659 0.2711499 -0.7633549
-36.373566 -35.438114 -62.373024 -0.45493656 0.27512378 -0.84695905
-47.587055 -33.843243 -54.228695 -0.62670815 0.26705691 -0.73206377
-50.86734 -39.140659 -53.391453 -0.63548583 0.27436584 -0.72172093
-26.962914 -35.887154 -66.778831 -0.36817363 0.27635315 -0.8877371
-26.539131 -41.564465 -68.724403 -0.34820989 0.28868708 -0.89185733
-36.283211 -39.894707 -63.932583 -0.45217198 0.28143901 -0.84636426
-32.531265 -37.048054 -64.820389 -0.38904285 0.28345618 -0.87652624
-42.705601 -40.421787 -60.239388 -0.53544426 0.27217552 -0.79951227
-48.071293 -41.192356 -56.587723 -0.60723758 0.26561826 -0.74880534
-53.613663 -44.226608 -52.705101 -0.66739255 0.26124507 -0.69737947
-30.379587 -42.968632 -67.738518 -0.38290688 0.28568593 -0.87850207
-34.167229 -45.100281 -66.665253 -0.41543072 0.27440664 -0.86724758
-38.775848 -43.908852 -63.917179 -0.48834792 0.27031121 -0.82972777
-29.099894 -46.09938 -69.198967 -0.35861576 0.27513894 -0.89201635
-38.753891 -45.723763 -64.423866 -0.48156974 0.25924391 -0.83718765
-46.579689 -45.253628 -59.11116 -0.58172286 0.26537675 -0.76887816
-40.223827 -48.739883 -64.49543 -0.49601895 0.26642182 -0.82642883
-43.241764 -45.917248 -61.67334 -0.53706861 0.26181763 -0.80187833
-50.316265 -44.859241 -55.874485 -0.63496941 0.26472408 -0.72576505
-35.745094 -48.680656 -67.036156 -0.4438974 0.26776201 -0.85513657
-43.311569 -50.953831 -63.308456 -0.52689576 0.26578209 -0.80730462
-48.027515 -51.697536 -60.232998 -0.57824266 0.25864869 -0.77378047
-31.405975 -50.584328 -69.648796 -0.37730801 0.26479781 -0.88742369
-37.639114 -52.028244 -67.080727 -0.45061886 0.26392883 -0.85280961
-54.865936 -51.320766 -54.187813 -0.66817653 0.26380205 -0.69566423
-4.9964342 -56.051895 -76.908455 -0.084098816 0.32142919 -0.94319177
-10.640636 -59.147881 -76.582504 -0.31138986 0.64296359 -0.69973868
-31.124378 -54.918835 -71.069084 -0.37786692 0.27037716 -0.88550144
-40.777874 -54.982716 -66.227623 -0.50653166 0.24301071 -0.82726741
-46.320686 -54.621567 -62.442593 -0.5585525 0.2458156 -0.79220819
-56.550323 -56.762646 -54.604233 -0.67644745 0.25449771 -0.69112223
-26.405369 -57.521774 -73.6455 -0.31312513 0.29458416 -0.90286922
-36.661564 -56.517853 -68.926025 -0.4516356 0.24757232 -0.85716587
-72.619156 -64.764053 -36.37162 -0.8602466 0.2609998 -0.43801245
-43.277531 -57.041794 -65.15834 -0.5170961 0.24377589 -0.8204785
-51.537556 -56.823708 -59.174347 -0.62565696 0.2488355 -0.73934716
-15.505359 -61.949524 -78.036224 -0.13796182 0.43926728 -0.88769972
-48.906548 -58.519554 -61.77507 -0.57936674 0.25525761 -0.77406567
-7.8524246 -64.085808 -79.592506 -0.067754388 0.37993962 -0.92252666
-25.173872 -60.415085 -75.155563 -0.28215605 0.33314034 -0.89966965
-38.025997 -60.166607 -69.235336 -0.47560245 0.26133531 -0.83994412
94.821274 33.017509 -31.941216 -0.51477277 0.074535698 -0.85408044
-86.439934 -69.324196 -3.3784499 -0.71880782 0.67984509 -0.14534788
93.16671 43.138691 -24.326302 -0.49480492 0.78500378 -0.37274256
89.440628 40.358051 -22.714622 -0.7976979 0.56431228 -0.21267259
89.496422 37.477333 -26.3792 -0.84606647 0.26215753 -0.4641605
88.168167 32.282806 -24.444035 -0.94889915 0.019329689 -0.31498706
2.7723241 61.165035 -31.476803 -0.015097708 0.99765503 -0.066756099
87.900116 31.844799 -22.571131 -0.9994505 0.016367445 -0.028823657
89.025612 28.422928 -26.442242 -0.91153449 0.005588131 -0.41118559
-1.8375958 60.271164 -36.874096 0.052554816 0.94025463 -0.33639136
87.712242 24.94805 -22.726721 -0.98548084 0.021401729 -0.16843259
89.352951 23.732412 -26.844868 -0.87920487 0.0047370866 -0.47642025
-1.920958 58.28978 -40.241173 0.12493026 0.72251284 -0.67997617
88.054443 22.347563 -24.143091 -0.95202124 -0.0070656282 -0.30595034
-4.1303811 59.602501 -38.581676 0.029309435 0.90562928 -0.4230561
-6.7529182 58.146942 -41.061138 0.064406 0.76646209 -0.63905209
87.773659 19.9326 -21.842854 -0.99367034 -0.017181648 -0.11101408
91.425873 16.311384 -29.822155 -0.68052477 0.015094336 -0.73256958
89.58091 14.01587 -27.709961 -0.85373563 0.0062041576 -0.52066982
87.564392 13.574419 -23.113159 -0.97887307 0.013987507 -0.20398979
-32.759392 56.527916 -34.277214 -0.3659451 0.79255497 -0.48779178
-29.303755 57.063156 -36.006798 -0.34201005 0.77336061 -0.53380007
-36.400459 55.879631 -32.199642 -0.50952876 0.66854399 -0.5416913
88.142273 9.1437826 -24.408112 -0.950885 0.01030673 -0.30937272
87.402206 8.4566488 -20.463722 -0.99951941 0.024802027 0.018598503
87.643433 4.6150303 -23.275654 -0.98059982 0.0089526754 -0.19581591
-38.96299 53.357834 -32.270927 -0.60622597 0.47739035 -0.63607275
-41.272045 54.982773 -27.971437 -0.58423889 0.66722268 -0.46203768
-44.798466 55.567451 -21.915985 -0.5912649 0.7408089 -0.31876007
87.442635 3.068481 -19.743343 -0.9982903 0.020072261 0.054896537
-47.174568 54.773087 -18.521038 -0.67877889 0.68158561 -0.27331361
87.234039 -0.80843872 -20.055099 -0.99938089 0.035020504 -0.0033762287
-44.177216 53.347095 -26.058159 -0.72076946 0.48388413 -0.49633402
-49.904789 51.346088 -17.17804 -0.8417834 0.44386241 -0.30722463
88.979507 -4.6642079 -27.201368 -0.85415316 0.022583015 -0.51953089
88.132156 -0.62003279 -24.660217 -0.96081185 0.021277659 -0.27638316
-40.528835 48.486996 -33.856575 -0.63213497 0.40311295 -0.66174418
-47.51329 51.934391 -21.969355 -0.78839147 0.44571945 -0.42399651
-42.97879 49.656738 -30.528824 -0.696518 0.42388687 -0.57894951
87.288551 -4.5887194 -22.931499 -0.97567415 0.022605879 -0.2180573
87.101952 -7.5788717 -18.648903 -0.9957552 0.036808446 0.084360704
-50.371967 47.898308 -19.998756 -0.85591072 0.36128944 -0.36998203
-46.236553 47.884762 -27.380184 -0.75469911 0.38410249 -0.53187829
88.725769 -9.2201691 -26.857279 -0.89678645 0.034732215 -0.4410983
-42.897591 44.147949 -34.122738 -0.68321621 0.36983249 -0.62963438
87.470558 -8.402112 -23.076162 -0.97744691 0.04516761 -0.20629449
-49.338455 44.679039 -25.042736 -0.82633674 0.36414528 -0.42961118
86.770294 -11.541948 -20.441017 -0.99983573 0.017146228 0.0058681103
87.219612 -13.72442 -16.622925 -0.97051412 0.031036396 0.23903778
87.161415 -13.872527 -23.58836 -0.98420084 0.023079222 -0.1755451
-48.32489 40.434982 -29.551098 -0.76908678 0.3417756 -0.54008794
-52.482853 39.484085 -23.26857 -0.84401673 0.33236217 -0.42091709
87.313293 -16.999008 -23.661606 -0.96438211 0.023606837 -0.26345795
-43.890598 35.704384 -37.419769 -0.65722996 0.31273744 -0.68574339
86.602905 -20.534878 -21.684483 -0.99105066 0.065214209 -0.11647165
87.295509 -20.485592 -24.54924 -0.93373305 0.041113954 -0.35560119
-55.191261 33.160767 -22.291815 -0.87513781 0.29065257 -0.38685265
87.870026 -23.482607 -26.460234 -0.90121907 0.042517103 -0.43127307
86.748711 -24.550127 -22.894594 -0.97957546 0.02934495 -0.19892389
-48.327377 29.643099 -35.288025 -0.72729617 0.27384526 -0.62932432
-46.94363 34.907257 -34.540432 -0.73154664 0.3058078 -0.60936123
-51.091183 31.515478 -30.855936 -0.80439484 0.30134025 -0.51199913
87.20195 -29.942715 -24.824879 -0.96078843 0.042896822 -0.27394435
-54.552876 29.281626 -26.326786 -0.86011744 0.26071361 -0.43843639
87.951462 -31.35697 -27.100346 -0.86769247 0.040698253 -0.49543267
-51.356403 26.361568 -32.915009 -0.79361802 0.25173086 -0.55389714
-42.703449 24.514853 -43.015404 -0.61271274 0.25310734 -0.74867868
-49.020878 25.076834 -36.38134 -0.74917001 0.23791574 -0.61817497
-58.017262 26.991236 -19.412611 -0.9159953 0.24847586 -0.31498
-57.812702 23.571129 -22.366684 -0.91131812 0.21790233 -0.34931052
-53.084763 24.168324 -31.301922 -0.8174963 0.22278152 -0.53110099
-55.642727 24.663647 -26.598026 -0.86755216 0.22392279 -0.44408551
-45.454342 25.313288 -40.181507 -0.68016011 0.26450226 -0.68368185
-54.003567 19.992867 -31.503284 -0.82946944 0.19782192 -0.52234763
88.568581 -37.677361 -28.567127 -0.84340709 0.062749997 -0.53359795
-56.166481 21.468346 -27.114212 -0.87103111 0.20145369 -0.44801924
-50.947708 20.213099 -35.7043 -0.77375096 0.21110134 -0.59728199
90.299164 -41.940239 -31.635695 -0.77341378 0.096635714 -0.62649238
-47.967297 17.502008 -40.141872 -0.71677274 0.18746416 -0.67163533
-55.156353 15.674461 -31.308332 -0.83874929 0.17126499 -0.5168829
-57.634155 16.219847 -26.416687 -0.87889224 0.17499755 -0.4437615
-58.551872 17.770485 -23.756447 -0.91074264 0.18744574 -0.36798358
-46.763611 12.47634 -42.566822 -0.6995669 0.14575025 -0.69954491
-51.158787 15.99785 -36.927723 -0.77200055 0.1798083 -0.60965902
-59.665874 13.580996 -22.753454 -0.92924744 0.15086959 -0.33725014
-52.761124 12.299863 -35.6884 -0.80225962 0.14512561 -0.57906657
-50.088341 11.828232 -39.275291 -0.74685025 0.15240702 -0.64729202
-57.950802 12.659216 -27.028265 -0.89164031 0.15465206 -0.42551172
-56.769505 10.985404 -30.031475 -0.8620972 0.14032787 -0.48692536
-59.800236 9.1546917 -24.183327 -0.91525906 0.13410003 -0.37989232
-58.825245 5.7253342 -27.375687 -0.88595897 0.11135432 -0.45019647
-55.027294 7.2546101 -33.917965 -0.82352734 0.12393259 -0.55357325
-60.555328 5.0024281 -23.551342 -0.92246318 0.10252085 -0.37222487
-59.347088 2.7405739 -27.044937 -0.90732527 0.099449314 -0.40849802
-48.377808 4.6371856 -42.380608 -0.71463096 0.10868378 -0.69100678
-61.937328 2.0648119 -20.731386 -0.95024055 0.090546213 -0.29806784
-53.233486 3.1850774 -37.097363 -0.78598595 0.094997928 -0.61090225
-60.362141 -1.449212 -25.572935 -0.9168433 0.065564491 -0.39382702
-55.044155 -1.8415184 -35.217754 -0.82638437 0.071140364 -0.5585947
-60.894547 -4.913765 -24.929373 -0.92328805 0.069180027 -0.37782717
-51.105595 -7.405592 -40.808857 -0.73747373 0.12587956 -0.6635412
-60.404339 -8.7013559 -26.639961 -0.89570111 0.14193948 -0.42139357
-56.63015 -8.0015306 -33.567429 -0.84859574 0.13548568 -0.51139885
-49.192577 -10.699733 -43.953255 -0.67970717 0.2268649 -0.69751734
-53.805557 -9.7857647 -38.278915 -0.7800532 0.22211295 -0.58496392
-56.679352 -11.105527 -34.729584 -0.81032181 0.2525104 -0.52878827
-61.924118 -12.772858 -25.593994 -0.89375156 0.25459689 -0.36930841
-59.408234 -10.830692 -29.89386 -0.85906237 0.24825945 -0.44763735
-46.947426 -12.806689 -47.004879 -0.64444286 0.2791115 -0.71189195
-60.60183 -14.733739 -29.782269 -0.86960697 0.26167417 -0.41870081
-51.729145 -11.829381 -41.624622 -0.73295593 0.24123043 -0.6360687
-54.321964 -14.123839 -39.503338 -0.7508865 0.27129212 -0.60213786
-64.87307 -13.515822 -17.323051 -0.94000494 0.26511946 -0.2147149
-56.275265 -15.954903 -37.778072 -0.78723145 0.26492009 -0.55685186
-49.941818 -15.162986 -44.931026 -0.70440227 0.27121475 -0.65594202
-64.334503 -16.422148 -21.975674 -0.91698354 0.26159477 -0.30117992
-53.382153 -18.703997 -42.764328 -0.7266019 0.27607882 -0.62915039
-58.610046 -17.365812 -34.895138 -0.81994957 0.25872365 -0.51063168
-58.570583 -14.493362 -33.464584 -0.83486545 0.26243636 -0.48386651
-61.732971 -18.813679 -30.054256 -0.85377055 0.26571977 -0.44773751
-63.292912 -17.663458 -25.816593 -0.89110124 0.26957029 -0.36506221
-56.111572 -21.787304 -40.664162 -0.76771826 0.26128042 -0.5850994
-58.989716 -21.652309 -36.545326 -0.81922609 0.2711302 -0.50532866
-52.701225 -21.793997 -44.821198 -0.69925612 0.2634505 -0.66455597
-65.870117 -24.064682 -23.979986 -0.91600019 0.26343086 -0.30256897
-63.308331 -22.33663 -29.230145 -0.87332654 0.26757282 -0.40706956
-58.239414 -25.936197 -39.624386 -0.79111838 0.26269647 -0.55237883
-63.826843 -27.179129 -30.902966 -0.86570263 0.24689092 -0.43543538
-61.460888 -24.304647 -33.968639 -0.83811957 0.25633663 -0.4815051
-67.961861 -27.895763 -20.772261 -0.92446703 0.26748121 -0.27168816
-50.620644 -25.153996 -48.301914 -0.66870636 0.27045226 -0.69259459
-53.666466 -27.475525 -45.948933 -0.71821886 0.26448229 -0.64359206
-56.132904 -26.967768 -42.938721 -0.74821734 0.26900676 -0.60647023
-61.125454 -30.676241 -37.654259 -0.82069826 0.26296979 -0.5072487
-60.450508 -26.921671 -36.89114 -0.80238342 0.26661611 -0.53394449
-66.535057 -28.620089 -25.776999 -0.89942682 0.25910535 -0.35198838
-64.665703 -31.863516 -32.143887 -0.86158258 0.27225384 -0.42843127
-58.412987 -32.910889 -42.758842 -0.76296467 0.26669729 -0.58886117
-54.515106 -33.626823 -47.664185 -0.70857716 0.26819512 -0.65267897
-65.814339 -35.746265 -32.170254 -0.8648212 0.2624405 -0.42802951
-60.756161 -36.919121 -41.319881 -0.78735012 0.26581588 -0.55625695
-67.481834 -32.780338 -26.519304 -0.89807439 0.26134133 -0.35378394
-63.347191 -35.007122 -36.473259 -0.83239144 0.26472422 -0.48687327
-57.552807 -37.052559 -45.583126 -0.73792464 0.2637614 -0.62120628
-67.556419 -36.279732 -28.748919 -0.88648146 0.26264319 -0.38101077
-53.115482 -37.968296 -50.75436 -0.67846525 0.26820728 -0.68392235
-69.176476 -37.242126 -25.123159 -0.91069287 0.26409945 -0.31763178
-62.68993 -38.739738 -39.391182 -0.82216924 0.25602692 -0.50841713
-69.85891 -41.95892 -27.307322 -0.89445508 0.27178693 -0.35508019
-58.498596 -42.94215 -46.98415 -0.7440052 0.26183891 -0.61473298
-61.281395 -42.405426 -43.201832 -0.78337228 0.26524109 -0.5621165
-65.16082 -42.519203 -37.298527 -0.8240515 0.27133775 -0.49730784
-66.664246 -39.853546 -33.004868 -0.860174 0.26152885 -0.43783933
-67.957191 -43.766727 -32.854023 -0.86443043 0.27480763 -0.42099968
-71.326263 -43.548908 -24.417734 -0.91453403 0.27343655 -0.29809386
-56.207249 -42.600731 -49.426208 -0.70730448 0.2661159 -0.65490663
-59.716858 -46.759689 -47.098644 -0.74109769 0.25729743 -0.62013888
-69.883987 -44.854347 -29.417208 -0.89158058 0.27593395 -0.35908851
-50.191093 -50.483955 -58.136215 -0.6256687 0.26778483 -0.73268676
-67.212425 -46.748096 -36.223042 -0.84587604 0.26842493 -0.46091396
-59.689236 -50.325981 -48.56551 -0.7348119 0.25851509 -0.62707371
-64.617882 -48.513424 -41.310131 -0.80626243 0.26530337 -0.5287295
-57.261562 -49.84758 -51.162411 -0.70865154 0.25704879 -0.65706843
-62.378078 -47.72858 -44.195358 -0.76694691 0.26368442 -0.5850324
-66.552666 -50.663284 -39.388733 -0.81987822 0.26410067 -0.50798678
-69.929161 -51.341667 -33.674503 -0.86649472 0.26557034 -0.42268094
-70.667435 -48.356152 -30.077339 -0.88234258 0.26456213 -0.3892023
-62.638836 -53.002411 -46.260265 -0.76306611 0.26939869 -0.58749837
-52.844379 -54.170238 -57.112686 -0.63930315 0.25483212 -0.72550136
-72.811897 -51.904411 -27.294846 -0.89879066 0.26546916 -0.34885716
-74.335136 -52.72654 -23.629526 -0.92060691 0.26457715 -0.28719652
-58.734646 -54.590832 -51.353992 -0.71216077 0.26734671 -0.64911693
-68.947853 -53.805309 -37.048733 -0.84136361 0.26937103 -0.46855804
-65.377106 -55.035957 -43.431301 -0.8076852 0.26866049 -0.52484858
-72.163925 -54.704887 -31.062822 -0.8788144 0.2720947 -0.39198187
-75.166206 -56.990704 -24.917089 -0.92332 0.25811601 -0.28435245
-70.195129 -58.64642 -37.599533 -0.83478314 0.26015711 -0.48523751
-71.791367 -57.65443 -33.890488 -0.87309617 0.26694927 -0.40797204
-73.838974 -57.706356 -29.084618 -0.9008972 0.25662586 -0.35003918
-73.986351 -61.034275 -31.057947 -0.89227152 0.25563139 -0.37216154
-72.336456 -61.536652 -35.158195 -0.86463296 0.24337789 -0.43951911
-69.521248 -62.146091 -40.411873 -0.82785261 0.24982904 -0.50224042
-75.597046 -63.82053 -29.272993 -0.89417791 0.26739442 -0.35909039
-81.144295 -65.694458 -10.865535 -0.82491368 0.50194204 -0.25994539
-69.878929 -64.984894 -41.371319 -0.81222212 0.25731233 -0.52353191
-81.119827 -68.695465 -15.60016 -0.8347286 0.46204156 -0.29957613
-78.076767 -66.976646 -24.550442 -0.92230123 0.26426899 -0.28199711
-87.680542 -70.489952 7.0979052 -0.65685588 0.74577355 0.11118566
-46.910496 56.67429 -12.612371 -0.52211678 0.84389538 -0.1234284
-49.74567 54.63707 5.2043815 -0.76375991 0.62413311 0.16470727
-49.904629 54.005909 -12.476536 -0.78933197 0.58455801 -0.18774164
-51.65358 52.677216 -6.0794435 -0.87431347 0.48061681 -0.067700014
-52.054893 49.732002 -12.703524 -0.89991313 0.39757624 -0.17913534
-52.693893 46.229027 -15.676062 -0.89689988 0.36814445 -0.24503121
-55.208122 44.007099 0.44555488 -0.93721926 0.34412569 0.056547314
-54.363796 46.635128 -3.0828762 -0.93015742 0.36716047 0.00060951535
-55.206493 43.724556 -8.0476418 -0.93153447 0.3511495 -0.094539039
-54.334179 42.444321 -15.444484 -0.89043492 0.35463321 -0.28523806
-56.253017 39.763573 4.6258383 -0.93719035 0.32572252 0.12481656
-57.297985 38.487511 -1.5243876 -0.94606155 0.32345796 0.018507544
-55.666809 37.653244 -16.91527 -0.90423179 0.31410521 -0.28931457
-56.727116 34.025551 -16.909962 -0.92593879 0.27738336 -0.25631207
-56.97612 37.778549 -10.704901 -0.9367823 0.31244534 -0.15753339
-58.662037 33.934219 -5.8225331 -0.95574814 0.28957698 -0.051871266
-58.128437 30.749208 -15.214274 -0.93480951 0.26703069 -0.23414908
-59.293415 29.083229 -12.097915 -0.95512295 0.25914904 -0.14346419
-58.211258 33.328022 -11.470201 -0.945737 0.28011206 -0.16467759
-60.579514 25.333237 -9.9761839 -0.96464574 0.2282533 -0.13175325
-60.569469 26.956678 0.90931344 -0.96798712 0.24303053 0.062745593
-59.5089 25.32057 -15.705683 -0.94612491 0.23997003 -0.21739829
-60.575119 27.087166 -5.8008385 -0.96627319 0.25266197 -0.049780246
-60.466827 21.099226 -15.943408 -0.94832504 0.20566007 -0.24162707
-61.582405 22.915983 -3.4815867 -0.97630244 0.21544755 -0.020393727
-61.675217 20.6127 -10.177455 -0.97163206 0.20073447 -0.12504718
-60.393383 17.005285 -18.932642 -0.93633801 0.178105 -0.30257189
-61.595932 15.248563 -15.617068 -0.957995 0.16169643 -0.23685394
-62.409115 19.113525 -2.9387686 -0.98025107 0.19756986 -0.0086132931
-62.490257 17.208527 -8.6092196 -0.98237985 0.16638373 -0.08512409
-62.26009 15.394437 -11.920205 -0.97317469 0.157371 -0.16782552
-63.004028 12.649087 -9.9045401 -0.98158914 0.13519248 -0.13492918
-62.290508 11.41824 -15.225889 -0.971466 0.13504311 -0.19498014
-63.351112 12.485645 -5.8482127 -0.98942268 0.13866597 -0.042596284
-61.375977 6.5845776 -20.878086 -0.94911796 0.11486983 -0.29322359
-61.615349 9.759778 -18.740126 -0.94811988 0.13901624 -0.28590754
-64.304924 6.3539262 -2.5007424 -0.99422187 0.10696276 0.0090478631
-63.863911 8.9817085 -1.0490493 -0.99031419 0.13307208 0.039618094
-62.994682 6.6669273 -14.623753 -0.9723016 0.11177518 -0.20527022
-64.859192 -0.77503896 -0.48537654 -0.99630433 0.077700056 0.036611881
-64.84127 -8.2428083 -10.632311 -0.98315984 0.11845576 -0.13915776
-67.938637 -67.679031 -45.312378 -0.8062641 0.27433291 -0.52409893
-65.495087 -10.638992 -7.9556375 -0.98199898 0.17948525 -0.058847673
-64.28022 -10.103168 -15.32585 -0.9582538 0.18441221 -0.21849883
-65.673042 -12.685254 -11.825611 -0.96118027 0.23309381 -0.14764734
-65.873405 -18.984543 -19.094566 -0.93419147 0.25305682 -0.25149286
-66.926102 -19.030628 -14.819823 -0.94771129 0.26472184 -0.17822975
-67.965157 -20.519735 -10.884258 -0.95709014 0.26498502 -0.11730938
-89.01281 -71.173599 3.2358508 -0.6678102 0.74429518 0.0073570129
-67.684334 -23.805574 -17.162146 -0.93986261 0.26290384 -0.21803619
-68.726532 -22.036827 -7.2217155 -0.96205705 0.26679763 -0.057141811
-68.90181 -24.760193 -12.143052 -0.95417744 0.26360402 -0.14162691
-69.992851 -26.419405 -6.4532938 -0.96601641 0.2549895 -0.042339958
-68.973732 -28.49374 -17.538496 -0.94164044 0.26598611 -0.20631211
-70.410797 -30.424471 -12.687137 -0.95483792 0.2614699 -0.14113131
-70.159195 -32.622551 -17.35729 -0.9409861 0.26229364 -0.21388584
-69.192627 -33.831192 -22.224199 -0.92406195 0.26325756 -0.27713728
-71.04332 -30.737772 -7.2071972 -0.96432036 0.26106521 -0.043946546
-71.799583 -35.187458 -12.09274 -0.95175332 0.27116275 -0.14365402
-71.91021 -33.52578 -3.2293952 -0.962493 0.27128905 -0.0030810165
-71.339386 -38.05402 -18.854866 -0.94139528 0.26931047 -0.20309328
-72.547066 -37.064449 -9.988553 -0.96117723 0.26562941 -0.074694343
-73.56781 -40.792976 -10.643185 -0.95924824 0.27285376 -0.073441528
-74.853394 -45.504589 -10.773102 -0.9615373 0.25811836 -0.093919896
-75.357712 -52.746304 -19.909836 -0.93593895 0.26886541 -0.22744152
-75.478477 -50.152248 -15.295306 -0.95131475 0.26539293 -0.15673773
-77.261696 -53.00034 -6.2504807 -0.95968461 0.28021967 -0.021966668
-76.874596 -53.904938 -13.482272 -0.95062572 0.28120962 -0.13127008
-77.411095 -57.852638 -16.568409 -0.94818127 0.26085365 -0.18140443
-78.011246 -56.329445 2.5175405 -0.93947774 0.33932227 0.047349729
-78.741402 -58.245781 -5.8263898 -0.94579208 0.32380176 -0.02509699
-77.03434 -60.811314 -21.97772 -0.93426651 0.26296306 -0.24082473
-79.900146 -60.470276 2.5172985 -0.88012761 0.47441477 0.017495833
-76.377647 -62.583851 -25.866243 -0.9142645 0.26192212 -0.30905861
-78.82016 -61.9534 -14.86313 -0.9346754 0.3059842 -0.18098485
-80.388657 -61.617954 -3.6887705 -0.86420733 0.50017965 -0.054461084
-79.696342 -62.00211 -9.5317945 -0.91496462 0.37772596 -0.14199562
-81.925179 -63.65168 4.176002 -0.80163532 0.59422976 0.065359071
-79.02076 -65.478722 -19.382236 -0.93084848 0.28523886 -0.2283856
-83.915489 -66.029785 1.1713994 -0.78265232 0.6219269 -0.025735263
-80.637718 -71.365273 -20.124676 -0.88543296 0.35472023 -0.30030292
-49.116436 55.64975 -7.244545 -0.63826632 0.76672715 -0.068889245
-44.920303 -61.477547 57.088364 -0.48500884 0.25765568 0.83569127
-83.928581 -69.939369 17.896961 -0.66301006 0.68021345 0.31261384
-82.291595 -71.172272 23.505371 -0.62185168 0.70695633 0.33691734
-45.673077 23.138269 34.672482 -0.69799483 0.20805469 0.68521279
-45.574657 4.7946377 38.578506 -0.66341394 0.11099009 0.73997509
-50.103592 4.5209866 34.146774 -0.71689433 0.096686438 0.69044495
-54.358486 -31.361147 39.48605 -0.71458793 0.25454831 0.65158981
-58.358509 -30.548067 34.405396 -0.77246362 0.26481909 0.57720947
-57.073158 -46.990723 42.789379 -0.68754154 0.26371071 0.67656732
-60.123783 -49.081123 40.185539 -0.74805987 0.26186591 0.60978091
-56.568676 -50.941334 44.876671 -0.67709941 0.27022883 0.68448001
-60.81942 -59.729221 43.720551 -0.72034568 0.26044118 0.64286274
-83.99807 -67.655396 -7.7804956 -0.74340647 0.63178825 -0.21952288
-83.547729 -70.385735 -14.699404 -0.61934048 0.68994623 -0.37468877
-85.175064 -70.006927 -10.12345 -0.69862759 0.6573981 -0.28239524
-81.721313 -64.842506 11.070535 -0.73907286 0.63867003 0.21417752
-88.439697 -71.179588 -4.3405833 -0.65420294 0.74888682 -0.10576935
-85.28817 -69.088448 12.525158 -0.68347281 0.70395786 0.19315338
-58.882568 -68.693794 49.182755 -0.64457428 0.27071208 0.71500975
-51.382896 -67.814636 54.67812 -0.5504688 0.26437306 0.7918908
86.463783 -42.77935 -17.963654 -0.98503101 0.057699818 0.1624334
-29.269094 -67.641556 65.761909 -0.32426122 0.24351272 0.91408759
91.300194 27.950987 -11.293829 -0.70323515 0.037984721 0.70994192
-45.144135 -65.719063 58.241245 -0.49600831 0.2586731 0.82889324
4.6311536 57.703396 33.041759 0.13860817 0.81339508 0.56495684
91.717209 19.990021 -10.71231 -0.66848987 0.036434945 0.74282819
94.637962 20.143887 -8.6891937 -0.42889601 0.035007495 0.90267533
-27.083303 54.678303 34.231663 -0.34818354 0.60965466 0.71210212
-29.240234 49.302872 36.165649 -0.39362124 0.40232956 0.82655507
89.03006 5.2690043 -13.481197 -0.88057625 0.0041461303 0.47388658
87.800056 3.6110716 -16.963345 -0.97228533 0.017541165 0.23313835
93.101151 7.9917717 -9.0456133 -0.55806381 0.046468426 0.82849592
90.98761 2.6099882 -10.722832 -0.72281969 0.027094504 0.69050539
-35.143391 50.583542 31.814373 -0.51981151 0.42824686 0.73918915
-33.905876 45.184181 35.436401 -0.52553904 0.35880548 0.77140611
-26.391674 44.327873 39.538956 -0.32841256 0.36679855 0.87040454
87.894775 -0.02720527 -15.787276 -0.9728229 0.038762145 0.22828287
89.124428 1.553551 -13.055872 -0.87783808 0.016474228 0.47867429
-31.13064 42.416157 38.189758 -0.44188666 0.32450929 0.83631927
7.8048425 36.423256 42.604034 0.34558329 0.35846487 0.86722261
-26.835514 37.404022 41.928665 -0.33525154 0.31068751 0.88942659
-38.444042 39.285561 34.782352 -0.54695731 0.32291424 0.77237564
90.680702 -2.434695 -10.764091 -0.78016132 0.026533686 0.62501544
-31.139032 36.432236 40.400826 -0.43938085 0.30275065 0.84574616
88.568848 -5.2464695 -13.782 -0.92458874 0.072647631 0.37397584
93.074272 -3.1520944 -8.6025 -0.59122682 0.032704376 0.80584198
89.283295 -6.6275196 -12.344032 -0.8057844 0.026495343 0.59161603
89.940628 -9.8154898 -11.185295 -0.78709555 0.031592675 0.61602145
-35.708462 35.237022 38.300949 -0.51490355 0.30029279 0.80293125
87.526566 -9.6347837 -15.778894 -0.94713759 0.024277598 0.31990778
-27.552755 32.124695 43.328201 -0.34977898 0.28047496 0.89386153
91.674995 -12.103865 -9.327507 -0.65937793 0.030398482 0.7511968
-24.155338 32.184814 44.443069 -0.24253377 0.27750593 0.92960626
-19.397354 29.001165 46.558777 -0.19418128 0.28854045 0.93757027
-31.126867 28.504606 42.969833 -0.39859849 0.26822144 0.87702709
87.031509 -18.520773 -16.288658 -0.97153074 0.048047051 0.23199022
-41.425797 29.62995 36.140934 -0.62724662 0.24708474 0.73858702
88.951118 -15.376748 -12.396515 -0.83632773 0.051872231 0.54577023
-40.758522 33.05703 35.485313 -0.62413484 0.28018549 0.72935033
86.431419 -22.83803 -20.078001 -0.9988144 0.041780125 -0.024985986
92.488152 -15.618265 -8.5534115 -0.64542019 0.060468715 0.76143044
-38.520588 29.016069 38.529964 -0.55528033 0.25641805 0.79114699
88.054619 -19.872355 -13.4579 -0.87632084 0.042925287 0.47981161
90.534149 -20.52265 -9.9046221 -0.75826406 0.047651764 0.65020382
-35.169949 28.242149 40.984936 -0.49720743 0.25416288 0.82956976
86.807594 -22.584284 -17.11685 -0.97667056 0.015029917 0.21421656
87.659859 -22.639284 -14.491161 -0.95125699 0.031202996 0.30681661
-31.851835 23.653372 44.020012 -0.42671925 0.22910844 0.87488282
88.327988 -23.319519 -12.763364 -0.85904151 0.036966063 0.51056939
86.373512 -25.502739 -18.798773 -0.99240941 0.027721176 0.11981308
92.421913 -22.389017 -8.1210203 -0.64405835 0.043477155 0.76373988
87.219902 -26.512564 -14.725117 -0.9506253 0.02234933 0.30953518
89.098183 -24.867571 -11.544333 -0.80557317 0.035072338 0.59145725
-40.795544 22.347654 38.818146 -0.57236546 0.23518831 0.78554714
-43.184025 19.369053 37.802273 -0.61488217 0.19719285 0.76356715
-30.610817 19.372463 45.648499 -0.39431348 0.20593505 0.89560455
-26.617926 19.578268 47.111485 -0.30113629 0.20717987 0.93080258
86.523285 -28.456518 -18.607071 -0.99347687 0.0018021136 0.11401949
87.775154 -29.225456 -13.514955 -0.90705407 0.016318027 0.42069778
-37.575825 21.538086 41.413258 -0.52071023 0.21236105 0.82690001
89.824081 -27.195551 -10.225035 -0.74135774 0.038974844 0.66997743
91.777122 -31.529558 -8.1452894 -0.67458171 0.051008951 0.73643577
-21.414171 16.92874 49.098137 -0.21141215 0.19474411 0.95779938
88.70948 -32.635925 -11.685187 -0.83499527 0.030184254 0.54942858
-37.755451 16.091894 42.548069 -0.53905684 0.16080561 0.82677639
86.397598 -33.809921 -18.836315 -0.99008626 0.017292287 0.13939205
-43.020447 -69.857246 60.554806 -0.4364658 0.25112519 0.86396396
-34.355648 16.733582 44.415607 -0.4500038 0.18280119 0.87411696
-26.051996 16.148796 47.913765 -0.30588448 0.17516026 0.93581706
87.136154 -33.115028 -14.967977 -0.95410746 0.011577042 0.29924038
90.511711 -35.586155 -8.9567394 -0.76200372 0.048509639 0.64575315
-31.32831 12.620318 46.566547 -0.41791227 0.15054077 0.89592791
87.447227 -36.042465 -13.824411 -0.93700737 0.012169164 0.34909779
86.371857 -39.383858 -18.384979 -0.98659933 0.0071582017 0.16300493
-41.412601 10.273901 41.101166 -0.57945865 0.13053773 0.80447966
-23.795376 10.723593 49.644333 -0.28232831 0.16192003 0.9455542
-29.548796 14.625482 46.965244 -0.35335928 0.1737496 0.91921073
86.935226 -35.625549 -16.343216 -0.97062933 0.027952738 0.23895071
90.345863 -40.154179 -8.8733015 -0.76436663 0.067698985 0.64121801
96.484062 -35.654259 -4.7410073 -0.40680963 0.094917677 0.90856838
-15.819078 11.659961 51.068195 -0.13954088 0.17089994 0.97535712
85.94886 -43.839287 -20.330996 -0.99742502 0.070873953 0.010970738
87.928551 -39.530296 -12.61749 -0.88251257 0.040595848 0.46853319
-28.535452 9.7963629 48.290253 -0.34621787 0.15192468 0.92577106
93.713562 -38.560219 -5.82616 -0.56511992 0.076008171 0.8215
86.894081 -42.449203 -14.630395 -0.96424758 0.049871057 0.26026809
-35.186707 11.926396 44.805771 -0.48261765 0.14483185 0.86377311
88.470825 -41.6367 -11.361177 -0.86718369 0.066119306 0.4935796
-38.355747 7.5933323 43.63216 -0.54206765 0.12764031 0.83058459
-27.235697 5.8290591 49.266262 -0.32800862 0.12899116 0.93582672
91.811745 -42.223293 -7.350049 -0.66621786 0.10657696 0.73810232
-42.652618 4.1276612 40.974125 -0.60049313 0.11113574 0.79186928
86.590805 -47.337803 -15.556529 -0.96093249 0.13469249 0.24179861
89.751015 -45.979748 -8.7550344 -0.79594672 0.12565202 0.5921827
-34.262455 6.0464692 46.255859 -0.46708342 0.12790334 0.87491363
-30.936369 5.9100833 47.804882 -0.40023163 0.12245807 0.90819532
94.545975 -43.424416 -4.963479 -0.52912414 0.13665627 0.83746809
87.364159 -45.599567 -12.796054 -0.89215124 0.071547322 0.44603494
-38.07402 4.5897975 44.224243 -0.53160298 0.11168436 0.83959806
92.060867 -47.479847 -5.8710947 -0.64955831 0.18924722 0.73638272
87.468727 -48.417145 -12.001063 -0.87582648 0.22996747 0.42431471
89.488182 -49.639332 -8.1123648 -0.7786302 0.25290242 0.57426071
85.680206 -50.373249 -14.953879 -0.90148795 0.32874584 0.28150612
-33.87088 2.3568256 46.903812 -0.42597026 0.11530042 0.89736015
-26.904015 0.085283585 50.13755 -0.30663222 0.06727697 0.94944745
94.493523 -49.910217 -3.6170228 -0.46712434 0.22029264 0.85630953
-30.390265 -0.38727871 48.862747 -0.38076776 0.082545295 0.92097896
87.090332 -52.232777 -9.8195906 -0.77145875 0.41531876 0.48203915
-35.071442 -1.6766725 46.80442 -0.49393415 0.059535589 0.86745864
93.357323 -53.718891 -2.881552 -0.43067881 0.42322117 0.79711956
-33.614277 -4.8850946 47.530987 -0.46175405 0.058128439 0.88510138
-29.533649 -4.3990154 49.361404 -0.3730174 0.081053667 0.92427719
-10.618711 -8.3782024 54.048721 -0.13326608 0.16665871 0.97696728
-39.007294 -6.910284 44.583965 -0.53084719 0.08736939 0.84295183
-27.388504 -10.579751 50.977406 -0.35274303 0.19983283 0.91413307
-43.707802 -11.89414 42.281269 -0.61885458 0.23299618 0.7501545
-36.132053 -13.107104 47.813976 -0.48460245 0.25068569 0.83804375
-40.496277 -11.422937 44.523426 -0.54323041 0.22856365 0.80787337
-31.399414 -13.332885 50.206291 -0.38754436 0.2605738 0.88425714
-44.488609 -16.162369 43.136936 -0.60740793 0.26707596 0.74814844
-25.766752 -14.89376 52.951149 -0.3050274 0.27736431 0.91105837
-26.772415 -18.671598 53.695831 -0.3065964 0.25143525 0.91802996
-41.460674 -17.645144 45.946915 -0.54721057 0.25902575 0.79590595
-21.937122 -17.173307 54.720474 -0.25121337 0.2734355 0.92850673
-35.54253 -16.863266 49.29594 -0.45682856 0.26230064 0.85000348
14.69739 -30.255568 57.856564 0.29492617 0.28500843 0.91202462
-30.057732 -18.749863 52.472599 -0.38047457 0.26049545 0.88734508
15.530053 -26.831743 56.517353 0.31584379 0.29453477 0.90193784
-46.907532 -20.000647 42.551079 -0.63259178 0.2561965 0.73088366
-34.306484 -19.753134 50.812225 -0.43116906 0.2463602 0.86798608
-18.727652 -17.345226 55.499756 -0.1704946 0.27890089 0.94506395
-40.386093 -20.635599 47.613201 -0.50847512 0.2520096 0.82337368
-40.787079 -24.160831 48.480232 -0.5182898 0.25541666 0.81617284
-34.004982 -23.512236 52.052219 -0.43062493 0.2562401 0.86539197
-28.817007 -23.249346 54.133938 -0.3490023 0.25559789 0.90159142
-22.517319 -29.39543 58.024872 -0.24713212 0.25849587 0.9338659
-45.304115 -27.635612 46.340462 -0.58213037 0.25811166 0.77103984
-36.498589 -26.896402 51.737293 -0.44681838 0.25474936 0.85758746
-26.625097 -26.530376 55.948547 -0.30961239 0.26639804 0.91278267
-40.427418 -28.857681 50.105106 -0.5086683 0.25291094 0.8229779
-30.306273 -28.809643 55.22958 -0.37792256 0.25456926 0.89015108
-26.79867 -31.65283 57.325493 -0.30710572 0.25153205 0.91783321
-16.488853 -28.843256 59.234932 -0.1624826 0.26675144 0.94997001
-49.321514 -30.804188 44.200935 -0.6415208 0.24924757 0.72548383
-45.573803 -32.014179 47.693546 -0.57662058 0.24949743 0.7779845
-34.835281 -31.778358 54.066025 -0.43309113 0.25246131 0.86527193
-52.855324 -33.758205 41.907681 -0.67767406 0.26503339 0.6859411
-49.724964 -34.781731 45.196236 -0.63120419 0.24972625 0.73431462
-47.405453 -36.899303 47.666363 -0.59569621 0.24916446 0.76358575
-33.091534 -34.821247 55.687332 -0.3995108 0.24782357 0.88259542
-25.193457 -37.004425 59.316574 -0.30836925 0.24495794 0.91918653
-21.349672 -36.054489 60.202923 -0.23007721 0.24638149 0.94146734
-42.02737 -33.642105 50.609276 -0.51968229 0.2473015 0.81778497
-29.380493 -33.969791 56.953178 -0.34626043 0.25040063 0.90410358
-38.515003 -35.264877 53.158195 -0.45316154 0.24510796 0.85706872
17.018932 -44.602982 61.370659 0.30060402 0.26844084 0.91519219
-41.722027 -37.474499 51.867889 -0.51468855 0.24028987 0.82301676
-30.071667 -41.444286 58.890633 -0.35146341 0.24717544 0.90298277
-25.377647 -40.741615 60.224327 -0.28177729 0.23917791 0.92919081
-65.220612 -69.29406 -50.259651 -0.75818145 0.11044553 -0.64262164
-34.080494 -39.751713 56.580437 -0.41764575 0.24889129 0.87385648
-45.890278 -38.490196 49.391773 -0.56128007 0.25681826 0.7867713
-38.806496 -40.304001 54.420746 -0.46050417 0.24496952 0.85318571
-43.250893 -41.993828 52.288601 -0.50935036 0.25006968 0.82342422
-43.696568 -47.320831 53.659554 -0.51523954 0.2496015 0.81989467
-38.384315 -47.651279 56.74596 -0.45571971 0.24706876 0.85514718
-28.637865 -49.009514 61.356804 -0.3275665 0.24130663 0.91349405
-34.272717 -44.261406 57.834148 -0.3963972 0.23905852 0.88640857
-23.44426 -47.809601 62.689903 -0.2589089 0.24207297 0.93507588
-47.339199 -45.296951 50.598522 -0.55683064 0.25322604 0.79108548
-53.128056 -47.015209 46.509949 -0.64364058 0.2606934 0.71955943
-34.754192 -47.304108 58.350101 -0.3945992 0.24623877 0.88524461
-53.686626 -52.080219 47.919018 -0.6309213 0.25446969 0.73292804
-40.59547 -49.733147 56.136013 -0.47595465 0.25250149 0.84244293
-24.062546 -52.621708 63.635006 -0.25840756 0.23382048 0.93731183
-50.449451 -51.069473 50.203953 -0.57651705 0.25101787 0.77757192
-44.204479 -51.430527 54.590481 -0.52040708 0.2524195 0.81575787
-51.372459 -55.232826 50.847622 -0.58572805 0.24915303 0.77126229
-33.424587 -54.320835 60.924347 -0.38193119 0.23088676 0.89488536
-29.640974 -55.324093 62.490921 -0.31172103 0.23586513 0.92043334
-25.262403 -56.562954 64.373085 -0.27480492 0.23167047 0.93317252
-46.287983 -55.143028 54.449821 -0.52271324 0.24412195 0.81680799
-84.598549 -67.14595 6.9298825 -0.73210829 0.67591894 0.084563062
-39.435566 -54.774723 58.30101 -0.44434324 0.23574115 0.86428303
-35.984726 -56.98954 60.390789 -0.3965615 0.22068927 0.89108646
-54.243546 -59.02824 49.779339 -0.60577804 0.26549551 0.7500301
-49.334721 -59.49017 53.627777 -0.55523819 0.2513817 0.79279113
-44.644207 -58.004848 56.197811 -0.49022838 0.22930761 0.84088892
-88.962776 -71.236832 8.673666 -0.44725338 0.89245486 0.059065279
-39.844086 -59.509857 59.207298 -0.43317559 0.23976403 0.86883372
-86.512085 -71.349258 16.211763 -0.61344355 0.73716074 0.28333908
-33.891842 -62.082577 62.691864 -0.38039234 0.23017016 0.89572501
-49.61742 -63.734661 54.868031 -0.53717756 0.23795018 0.80920953
86.104057 -37.401852 -19.380583 -0.99008876 0.01581087 0.13955016
87.79969 -3.8189187 -15.83669 -0.94280434 0.018875908 0.33281183
86.761665 -17.54092 -19.499969 -0.99805886 0.061513428 -0.0097216694
-26.685371 26.683048 45.302177 -0.30380121 0.25426909 0.91817874
-87.991066 -71.234055 11.886145 -0.59942949 0.78665245 0.14785892
8.2199821 55.801449 -39.171524 0.37788144 0.50410724 -0.77658325
85.719246 -47.097343 -18.89724 -0.98472816 0.14211945 0.10056044
78.781921 -58.724434 -19.270159 0.12145151 -0.98822308 0.093084626
78.262352 -59.479156 -23.740963 0.25242105 -0.95255202 0.17008284
82.362083 -57.638397 -19.497896 0.44877881 -0.89285553 0.037504084
-66.803215 -33.326797 17.54384 0.91560191 -0.25109449 -0.31404573
-70.702866 -42.211868 12.04372 0.94349593 -0.21076474 -0.2557219
-67.986618 -34.225368 14.861388 0.92239118 -0.26090321 -0.28482291
-72.284431 -44.418785 9.0224962 0.94438082 -0.21567748 -0.24825023
-71.32489 -41.321449 9.2718964 0.94450098 -0.2535744 -0.20884909
-72.356949 -43.057644 6.2689958 0.95824856 -0.24743497 -0.1433025
-69.886169 -37.240784 11.102864 0.94203413 -0.24981679 -0.2239715
-70.596855 -37.262238 7.0819011 0.95252556 -0.26473194 -0.15037331
-74.327057 -49.513336 3.9502594 0.96665359 -0.21950504 -0.1319031
-72.902435 -43.617893 2.5746167 0.96128392 -0.2589083 -0.094337925
-69.779411 -34.092678 6.6046848 0.95153701 -0.26514286 -0.15580912
-67.973862 -30.545788 11.059075 0.93975163 -0.26723856 -0.21319103
-67.910133 -27.777464 7.6113706 0.95486093 -0.26470494 -0.13480343
-73.462799 -44.631107 -0.94889241 0.96684748 -0.2550908 -0.011598798
-70.56028 -35.266296 3.7818215 0.95902932 -0.26885286 -0.089335896
-68.790474 -28.256432 0.66811693 0.96193796 -0.26588055 -0.063109614
-71.940918 -38.983429 -1.3481222 0.96317303 -0.26799715 -0.021799847
-74.265533 -47.85606 -6.0799117 0.9705435 -0.23330741 0.060107201
-70.648293 -34.552048 -2.3699141 0.96301579 -0.26938307 -0.0057744435
-73.130188 -43.992027 -6.4283919 0.96308744 -0.26420429 0.051562984
-69.758713 -32.382511 3.1397777 0.9579733 -0.27288792 -0.088426299
-68.16156 -25.487259 -1.9286529 0.96571386 -0.25960171 -0.0019215002
-72.095924 -40.145229 -5.6460862 0.96179366 -0.26846704 0.053650465
-67.697487 -24.629393 1.9408375 0.96395987 -0.25294894 -0.082451269
-69.373253 -29.887844 -4.6535053 0.963476 -0.26660055 0.02526149
-70.361465 -35.103397 -10.178823 0.957573 -0.2681863 0.10549889
-72.547974 -43.031826 -11.307732 0.95681417 -0.27033895 0.10688093
-67.515678 -23.825445 -6.5793891 0.96361864 -0.26138493 0.055830076
-73.262222 -46.59943 -13.329674 0.96043354 -0.23994574 0.14139897
-67.944336 -25.871056 -8.8187141 0.9592663 -0.26655611 0.09357328
-69.854744 -32.460152 -8.0985823 0.96225709 -0.26277038 0.070804238
-68.950508 -30.985605 -12.390447 0.95602167 -0.26162633 0.13256781
-66.703644 -21.821909 -10.265146 0.95870149 -0.26628521 0.099917762
-71.329559 -40.400204 -13.127499 0.9407053 -0.28176484 0.18889697
-67.882416 -27.687576 -13.415857 0.94486016 -0.26967624 0.18577923
-66.897835 -23.446436 -12.267661 0.94709754 -0.26926172 0.17465496
-65.632607 -18.801693 -11.403015 0.95231527 -0.26728505 0.14715384
-71.362366 -42.436707 -16.32435 0.94110334 -0.25928694 0.21701348
-70.368011 -37.025711 -13.462352 0.94909042 -0.26060927 0.176947
-68.70948 -32.019344 -15.358277 0.9431833 -0.26206434 0.20427318
-72.266685 -48.84288 -18.974613 0.93513125 -0.24459645 0.25632435
-64.901237 -18.858192 -15.399284 0.94306964 -0.25755924 0.21043515
-69.875603 -41.188366 -21.1266 0.92660207 -0.25336078 0.27787936
-68.678284 -34.543972 -18.477886 0.93153411 -0.26920786 0.2444817
-66.974579 -28.424469 -17.94795 0.92683828 -0.27156982 0.25926915
-65.833244 -23.533659 -16.886452 0.93607557 -0.26525623 0.2310881
-67.928093 -35.703541 -21.793627 0.90633851 -0.27194157 0.32341668
-66.298805 -32.207027 -23.598303 0.90494853 -0.26108736 0.33600813
-67.529228 -38.534794 -25.053625 0.89626795 -0.27170199 0.35054499
-64.609138 -27.836214 -24.747713 0.90370953 -0.25475475 0.34410632
-65.665176 -26.082994 -20.262138 0.92329735 -0.25790387 0.28461829
-67.302063 -40.818485 -27.420771 0.87648636 -0.26553631 0.40157467
-65.164513 -36.528069 -29.456011 0.87667531 -0.25540408 0.4076876
-65.887512 -43.134007 -31.991255 0.85818917 -0.26491198 0.43969646
-61.561466 -17.053213 -24.68854 0.88013327 -0.25003079 0.40354675
-64.048042 -32.963375 -29.567881 0.86582011 -0.25868934 0.42829362
-62.704231 -27.033768 -28.742216 0.87063169 -0.26635519 0.41358858
-63.852932 -41.040825 -34.502205 0.84145617 -0.26065162 0.47329938
-60.624355 -21.848894 -29.45472 0.85886854 -0.26235354 0.43990394
-60.858967 -29.302271 -33.362377 0.8122161 -0.27248588 0.5158065
-61.074677 -33.520065 -35.337772 0.81804502 -0.26502815 0.51045322
-58.911335 -16.750771 -29.819067 0.85060072 -0.24456599 0.46547368
-60.050426 -24.574095 -32.016869 0.82921022 -0.26770148 0.49065903
-62.351959 -37.532799 -35.272205 0.83002752 -0.25509655 0.49596384
-57.568531 -24.590628 -35.9809 0.79831928 -0.25729489 0.54450506
-57.054665 -18.705948 -34.007221 0.81383467 -0.2497981 0.52466571
-58.159718 -33.894676 -39.713501 0.77171576 -0.26615307 0.57759607
-55.033775 -23.27203 -38.858082 0.75849056 -0.26164371 0.59685391
-54.275322 -38.930794 -46.439232 0.7211172 -0.26976317 0.63813627
-55.051426 -28.225208 -41.171093 0.75259376 -0.27310467 0.5991798
-52.860077 -25.51129 -42.431953 0.72033405 -0.27072883 0.63861161
-54.943394 -34.688122 -44.088692 0.72030008 -0.25708315 0.64426392
-50.606049 -39.136513 -50.163383 0.65110713 -0.27272964 0.70829231
-50.394009 -22.298874 -43.912144 0.67907226 -0.26336399 0.68520081
-51.900665 -33.111809 -46.642128 0.68391299 -0.26844978 0.67837876
-50.281071 -28.928911 -46.617126 0.66708076 -0.27306506 0.69313687
-48.354454 -34.863396 -50.588367 0.62391192 -0.26801792 0.73409832
-45.132568 -27.745584 -50.645798 0.61772591 -0.27718747 0.73592246
-45.276711 -22.967337 -48.756546 0.6240375 -0.25530198 0.73851073
-43.189407 -32.475773 -53.894703 0.57250601 -0.26724181 0.77512491
-45.732071 -40.506699 -54.729362 0.58769161 -0.28313455 0.75792706
-41.832577 -27.352385 -52.999187 0.55441713 -0.27492407 0.78551793
-41.960316 -22.342436 -51.117603 0.57677734 -0.24793085 0.77836889
-44.254353 -35.581665 -54.094105 0.56367481 -0.26704881 0.78163648
-42.335308 -19.119986 -50.004425 0.5814147 -0.25577459 0.77235764
-39.977001 -36.507645 -57.363701 0.5153144 -0.28411132 0.80853683
-40.048199 -33.10569 -56.069111 0.51489127 -0.27168241 0.81306559
-38.749363 -28.444204 -55.385983 0.49915838 -0.26159877 0.82607931
-42.58173 -40.711433 -56.975117 0.54225695 -0.28805879 0.78929049
-37.908916 -23.816906 -54.486748 0.51808167 -0.26079497 0.81460255
-36.675838 -32.558247 -57.893711 0.48016 -0.28416124 0.82987881
-39.550346 -42.855526 -59.849316 0.50790578 -0.30726963 0.80474657
-35.44603 -22.190676 -55.306263 0.44591716 -0.27124789 0.85298455
-36.024151 -26.884264 -56.381931 0.46760127 -0.26343486 0.84377193
-33.491665 -33.906109 -60.241665 0.40472242 -0.27240339 0.87292391
-32.884682 -29.377697 -58.959709 0.43243754 -0.27569324 0.85848182
-30.822037 -27.315981 -59.334309 0.36914581 -0.28337824 0.88511473
-28.781099 -23.691105 -58.925636 0.30193904 -0.27853477 0.91172981
-10.37606 -62.122284 -75.377884 0.15098824 -0.45256698 0.87885481
-55.304852 -30.530523 36.253399 0.75469869 -0.28123018 -0.59273899
-57.795986 -25.515638 30.792286 0.77637488 -0.27437288 -0.56741649
-55.415165 -25.959021 34.108822 0.76428628 -0.27148265 -0.58494759
-56.905586 -21.755095 30.089092 0.76231676 -0.28548118 -0.58083868
-59.013298 -21.78393 26.904009 0.82294059 -0.26890916 -0.50045639
-55.999928 -17.560371 29.290791 0.78390723 -0.25313768 -0.56693095
-55.918701 -12.65818 27.217724 0.82934844 -0.2544173 -0.4974463
-57.654175 -20.130432 28.304934 0.80561417 -0.25613877 -0.53420848
-57.194241 -16.084787 27.188734 0.81315267 -0.28089872 -0.50978291
-53.546787 10.91249 25.989502 0.84989637 -0.14173466 -0.50753081
-52.503136 13.972834 26.575281 0.81475252 -0.16906583 -0.55461258
-49.957253 20.02313 28.371691 0.80620915 -0.18731077 -0.56119633
-58.93425 -17.434404 24.841776 0.84320599 -0.26883182 -0.46554601
-58.106079 -15.255841 24.588636 0.84021777 -0.2780171 -0.46555406
-54.067352 6.9688554 25.911842 0.86008561 -0.12547742 -0.49447766
-54.136051 15.081558 23.83847 0.85555536 -0.15461738 -0.49408346
-50.808033 25.09823 25.455549 0.80954498 -0.21654235 -0.54566145
-59.599266 -16.180178 22.670668 0.86070865 -0.26829869 -0.43266201
-55.949753 -0.89452553 24.198584 0.87879115 -0.072015814 -0.47174126
-55.506744 2.2235165 24.689596 0.86264706 -0.10903937 -0.4939135
-52.704052 17.671576 25.167109 0.82812548 -0.18673988 -0.52852285
-52.599602 22.564367 23.727528 0.8259334 -0.19297856 -0.52971053
-57.5327 -3.685626 21.738413 0.91344136 -0.042257622 -0.40477043
-56.233299 5.5677166 22.683851 0.87839335 -0.104349 -0.46640792
-58.269295 -10.02765 21.568851 0.9000172 -0.21270512 -0.38042802
-57.74794 -6.6557727 21.345266 0.91649371 -0.077439658 -0.39248237
-58.215202 0.31828919 19.687389 0.91614109 -0.073534697 -0.39405343
-56.979134 0.79898226 22.1642 0.89313298 -0.080312841 -0.44256455
-57.606621 5.5152574 20.015034 0.9009583 -0.097382456 -0.4228366
-55.732658 8.3587189 22.829824 0.85856402 -0.13612477 -0.49430546
-55.798054 13.12996 21.293964 0.87247974 -0.14199002 -0.46756589
-61.080585 -17.638084 20.428764 0.87609529 -0.27545211 -0.39570594
-61.109715 -15.122489 18.191437 0.88688898 -0.28075776 -0.36688286
-59.596996 -11.927114 19.918081 0.88263959 -0.26951638 -0.38510835
-55.481956 18.428976 20.148201 0.88438797 -0.17608757 -0.43226272
-53.941128 24.272268 20.752546 0.88129878 -0.19890951 -0.42865765
-52.513008 25.719152 22.586779 0.83760411 -0.24440864 -0.48855284
-51.106022 30.49791 22.460262 0.8265118 -0.26282534 -0.49779621
-54.058159 27.471312 18.687384 0.87729001 -0.24467924 -0.41290945
-61.286121 -12.66672 16.509586 0.91007912 -0.25766322 -0.32460082
-56.924469 15.454538 18.163937 0.90273535 -0.1678559 -0.39609754
-54.224995 21.491905 21.220686 0.86807746 -0.19741708 -0.4554866
-50.68745 36.766045 19.577686 0.85887617 -0.28447944 -0.42591447
-58.473938 5.2965741 17.972061 0.91798174 -0.093554139 -0.38543099
-57.5107 11.123773 18.653688 0.89957559 -0.13353515 -0.41585106
-57.991947 13.875666 16.332922 0.92252207 -0.15867773 -0.35181591
-54.813572 24.704542 18.141041 0.89117414 -0.19509162 -0.40957034
-53.019413 33.160599 17.237799 0.87817442 -0.28152955 -0.38671789
-52.293243 31.715481 19.701324 0.8525601 -0.2654148 -0.45021802
-59.882263 -9.2962666 16.979446 0.90784508 -0.19028184 -0.37364435
-59.727383 4.6725311 15.008998 0.93566173 -0.088892885 -0.34151885
-59.214081 8.460825 15.257693 0.9331013 -0.12047503 -0.33883286
-63.034981 -16.707113 14.835752 0.91206777 -0.27902314 -0.30046371
-60.178112 -5.7108169 15.678068 0.93920588 -0.048444249 -0.33991975
-56.877239 19.851202 16.276812 0.91720563 -0.18592089 -0.35237378
-55.878986 22.056585 17.458073 0.89040178 -0.20852491 -0.40460104
-59.415443 -2.6923981 17.259441 0.93098444 -0.047819372 -0.36191341
-58.964096 12.392395 14.193593 0.93123639 -0.14367686 -0.3348965
-58.11478 17.526146 14.101943 0.92046279 -0.19678023 -0.33767715
-55.999676 25.351439 15.69963 0.90446496 -0.22242828 -0.36396277
-55.046486 30.211702 14.559855 0.90333319 -0.26619768 -0.33634493
-53.345188 34.720715 15.010657 0.88979697 -0.29172757 -0.35093653
