# .PCD v0.7 - Point Cloud Data file format
VERSION 0.7
FIELDS x y z normal_x normal_y normal_z
SIZE 4 4 4 4 4 4
TYPE F F F F F F
COUNT 1 1 1 1 1 1
WIDTH 739
HEIGHT 1
VIEWPOINT 0 0 0 1 0 0 0
POINTS 739
DATA ascii
8.9667969 -20.717121 54.031265 0.17033795 0.2880013 0.94235885
17.137403 -21.891825 52.173378 0.30495074 0.30460903 0.90234053
-20.3578 -21.173429 51.97216 -0.31661046 0.26346704 0.91123158
12.7204 -19.60046 52.838188 0.26615185 0.29239374 0.91851455
56.023453 -30.84572 28.656469 0.89140207 0.009302902 0.45311785
-11.110858 -20.394194 54.203857 -0.17184527 0.27099621 0.94711679
1.4786271 -20.44479 54.868191 0.051696934 0.26545179 0.96273708
10.869179 -20.423908 53.584396 0.20941144 0.28954414 0.93397588
18.967916 -21.91713 51.51104 0.36828423 0.3215178 0.87234914
24.673491 -23.522123 49.446308 0.42545626 0.39644548 0.81352192
12.95945 -21.14609 53.314941 0.25964999 0.30951494 0.91475809
15.092193 -21.031651 52.591347 0.28883642 0.27336204 0.91752201
-16.27319 -21.279476 53.251625 -0.2537818 0.2785556 0.92628372
3.1096435 -22.09103 55.192837 0.087134808 0.26130238 0.96131605
5.851119 -20.673481 54.560429 0.11840291 0.26594886 0.95668805
-5.4018831 -21.485651 55.153633 -0.049751204 0.26809666 0.96210653
-8.5791473 -21.684788 54.968777 -0.11377628 0.28620178 0.95139033
-4.4058809 -23.689219 55.85136 -0.076382332 0.4463951 0.89157003
12.386669 -22.886133 54.044647 0.24677624 0.32627967 0.91249275
0.93611562 -23.543941 55.773369 0.053071298 0.40569907 0.91246468
15.294051 -23.487715 53.175873 0.28255808 0.36258644 0.88808334
16.855318 -24.561316 53.385605 0.24160287 0.57531118 0.78143781
18.878372 -24.42017 52.565796 0.31296501 0.50825423 0.80232829
8.1925211 -23.473091 54.967781 0.13482267 0.37245426 0.91820514
13.673226 -24.710457 54.512344 0.20837286 0.5922246 0.77836412
-1.6590014 -23.202475 55.73539 0.011984998 0.3610785 0.93245834
4.8358436 -23.637629 55.4044 0.097825952 0.42869043 0.8981396
2.0959802 -24.37171 56.488407 0.034853633 0.58350188 0.81136352
28.610323 -24.929777 54.31002 -0.0058624074 0.99933469 0.035997998
23.30579 -25.325682 57.995472 0.2104992 0.86950845 0.44681671
20.614403 -25.023354 59.021278 0.19856624 0.79779601 0.56929165
5.8918281 -25.251013 62.0998 0.022728054 0.92373967 0.38234615
11.822883 -25.213783 61.40554 0.088443279 0.90515506 0.41577888
15.430548 -25.352262 60.910782 0.17313683 0.84974599 0.49795121
17.382128 -25.254513 59.309078 0.056974098 0.95506847 0.29085767
23.267563 -26.311722 59.016857 0.3021391 0.36878246 0.87904006
-26.300995 -27.745344 59.024769 -0.37593657 -0.080592662 0.92313409
17.819782 -26.128431 61.01968 0.21254741 0.53566635 0.81724238
20.289759 -26.508394 60.21851 0.37864158 0.069611244 0.92292196
-29.976774 -26.880556 57.603508 -0.4321335 0.092533231 0.89704967
1.7569519 -25.276917 62.210838 0.0055303085 0.90237361 0.43091917
-24.591648 -28.156149 59.64801 -0.34235686 -0.12758251 0.93086755
25.628693 -29.097395 57.622204 0.41688126 -0.075983524 0.90577954
27.571966 -27.748167 56.88781 0.43654203 -0.082204834 0.8959204
-31.122503 -29.776922 56.533638 -0.42860028 -0.09261784 0.89873451
-18.34696 -28.201733 61.589729 -0.25698802 -0.082124799 0.96291888
5.2784119 -26.025373 63.510921 0.10841991 0.48262665 0.86908948
10.070272 -26.111017 62.900078 0.21343333 0.62299669 0.75254327
23.344028 -27.519573 58.902729 0.39739504 -0.0045253434 0.91763645
29.300959 -30.402874 55.628231 0.49755356 0.0068171602 0.86740649
31.932222 -30.287424 54.050617 0.5223493 -0.044736214 0.85155737
-28.372122 -28.904755 57.926792 -0.41533902 -0.089927077 0.90521079
-21.185112 -27.840393 60.874008 -0.29233873 -0.054905824 0.95473737
2.8351023 -26.07011 63.832924 0.040388122 0.68101525 0.73115456
13.760205 -26.037201 62.200809 0.23949641 0.2020757 0.94963509
16.135067 -27.075357 61.369045 0.28309485 0.042598356 0.95814544
18.318539 -27.799387 60.692589 0.29511088 -0.12478517 0.94727939
-17.222845 -26.75725 62.015556 -0.20211628 0.13174433 0.97045994
8.5841637 -26.351246 63.265747 0.13076021 0.26094824 0.95645589
11.34259 -26.860947 62.702766 0.19994496 -0.0043569319 0.97979748
22.264826 -29.406626 59.017723 0.37367636 -0.07985951 0.92411494
17.811573 -29.658907 60.597176 0.31203631 -0.040412314 0.94921029
31.729448 -32.660564 54.45789 0.51935631 0.1047114 0.84811819
-11.76727 -27.310299 63.17865 -0.1572779 -0.083161227 0.98404676
3.2449682 -27.232601 63.667664 0.073855713 -0.10894835 0.99129993
27.459188 -31.230291 56.687229 0.45009419 0.053450037 0.89138001
-27.964148 -31.586327 57.999908 -0.39501154 0.016990632 0.91851896
-25.852345 -29.931894 58.825825 -0.34644395 -0.075923607 0.93499315
-2.0510533 -29.246645 63.608791 0.002087028 -0.087359488 0.99617463
-35.628864 -33.725327 54.353905 -0.50088835 0.17237003 0.84817427
-29.692303 -31.33025 57.164684 -0.43909481 0.039581008 0.89756846
-8.5481129 -28.464306 63.329216 -0.09583728 -0.087387934 0.99155366
15.721096 -28.754248 61.349209 0.27406973 -0.07443101 0.95882523
19.874281 -29.561485 59.882088 0.33549163 -0.05831565 0.94023645
23.43309 -31.29376 58.476189 0.40545538 0.055930138 0.91240221
25.22979 -31.343529 57.677761 0.40589723 0.066626579 0.91148686
-31.893667 -31.962103 56.114414 -0.46230009 0.064961225 0.88434082
-24.101387 -31.976812 59.649067 -0.34624076 0.08844161 0.93396753
-19.297846 -30.7232 61.038464 -0.2602081 -0.045101009 0.96449864
6.6293206 -29.766485 63.000355 0.12777206 -0.077012636 0.98880905
14.139322 -29.504421 61.641777 0.24840915 -0.046344321 0.96754593
19.649698 -32.232258 60.0546 0.33774421 0.071671039 0.93850523
21.46958 -31.950588 59.385944 0.36442733 0.050169554 0.92987949
-26.38555 -32.047745 58.713486 -0.38312349 0.077619836 0.92043018
11.883824 -30.122692 62.17894 0.19975831 -0.03353798 0.97927105
31.845938 -34.184757 54.622326 0.53589749 0.14952455 0.83093697
-22.927576 -34.134277 60.274254 -0.3010914 0.025872339 0.95324427
-20.682955 -32.537628 60.75676 -0.26416516 0.079506114 0.96119481
7.6257515 -31.139923 62.82946 0.15840036 0.092988491 0.98298651
-17.751633 -31.052858 61.41964 -0.24745494 -0.012638165 0.96881694
-16.520504 -32.730755 61.862576 -0.23754483 0.08212547 0.96789867
14.73175 -33.249302 61.621933 0.23279405 0.067617387 0.97017258
-14.985679 -33.364349 62.313892 -0.22134575 0.095758148 0.97048259
-12.372258 -31.007988 62.656033 -0.16949008 0.0089786882 0.98549104
-7.179306 -31.57008 63.365276 -0.094944835 0.052483842 0.99409807
11.344047 -32.543663 62.349888 0.20247371 0.081872076 0.97585928
17.527906 -31.786032 60.72163 0.29530677 0.055237737 0.95380437
-5.6131992 -32.232704 63.522545 -0.071467318 0.092245787 0.99316823
6.8992434 -31.961512 62.981808 0.1082882 0.085754618 0.99041396
21.766592 -34.184418 59.43816 0.34766462 0.19641165 0.91681606
25.569572 -33.59024 57.986641 0.40909079 0.14109267 0.90151966
32.353607 -35.627834 54.542534 0.6113705 -0.063908637 0.78875971
-18.893137 -34.20982 61.43856 -0.26719522 0.075675368 0.96066636
9.0400419 -33.183975 62.993534 0.15555967 0.13217689 0.97894353
30.783993 -35.715042 55.93298 0.48780164 0.34739965 0.80085146
16.065899 -32.795166 61.258289 0.26509693 0.087083541 0.96028125
20.023426 -34.692715 60.285187 0.35201922 0.3205547 0.87939018
23.560263 -33.882042 58.716396 0.37515888 0.17333086 0.91061097
27.793459 -35.370914 57.028477 0.45709825 0.12666155 0.88035107
-10.985164 -32.6241 62.979313 -0.14322375 0.092434995 0.98536426
1.0459678 -31.54414 63.488728 0.042340279 0.048293285 0.99793541
13.634989 -34.670063 62.118099 0.20459069 0.079180852 0.97563982
3.4075534 -34.661522 63.7883 0.085781805 0.043086126 0.99538183
23.387163 -35.762779 59.534538 0.32153115 0.48905689 0.81082737
-9.9342308 -34.898457 63.494625 -0.13766855 -0.020782178 0.9902603
-6.6585565 -34.26873 63.638447 -0.064331867 0.063037924 0.99593556
-4.0674429 -33.778927 63.794361 -0.046022464 0.084824763 0.99533242
-0.85795707 -33.907585 63.808296 0.012288575 0.086688809 0.99615967
1.3499162 -33.844261 63.680058 0.027928613 0.13172892 0.99089229
20.869501 -35.73856 60.908276 0.34342465 0.66995943 0.65818983
40.052921 -34.396812 48.8339 0.63717026 0.035237178 0.76991719
41.121178 -31.927776 47.462994 0.64620334 0.10234454 0.7562716
47.780441 -33.076027 41.154724 0.74314678 0.093878426 0.6625101
47.010204 -30.96022 41.645222 0.75458121 0.023523094 0.6557849
50.497425 -8.9869814 3.5178082 0.89185476 0.44118261 0.099765345
52.360191 -12.751336 0.26960808 0.9232406 0.38373977 0.019249687
51.732414 -11.591969 3.8499939 0.90937048 0.40476856 0.09595672
52.707424 -14.358084 4.8029656 0.93333858 0.33482254 0.12951048
53.191017 -14.708102 0.86302274 0.93813294 0.34577438 0.01862138
51.963089 -13.026806 6.5145307 0.91505015 0.37310004 0.15323046
52.713287 -15.193993 6.550714 0.93132764 0.33992445 0.13069126
53.200603 -14.987191 2.7197647 0.93798286 0.33945569 0.070413783
53.905266 -16.947968 0.35566092 0.9545576 0.29669517 0.028138783
54.247406 -18.2981 2.6146755 0.95493329 0.29273221 0.04909353
54.01392 -19.573715 7.1117868 0.94728518 0.28442958 0.14748092
63.518108 -29.152046 0.49585658 0.99590933 -0.082947515 0.035839897
63.544418 -32.129326 2.485924 0.99089646 0.1240082 0.052405696
63.587322 -32.328033 -1.8616732 0.99617654 0.08605472 -0.015065079
63.753712 -34.331989 -3.7532358 0.99549019 0.029987497 -0.090000145
63.543926 -33.079704 4.2262282 0.98376352 0.16474602 0.071190923
62.562786 -31.044142 9.3657608 0.97876084 0.067275807 0.19365199
64.275467 -34.919731 -2.1708357 0.99634838 -0.010406562 -0.08474417
63.984413 -35.089481 -0.5522424 0.99766535 0.024213769 0.063855283
62.290554 -32.281124 11.306273 0.97081465 0.12741083 0.20318796
63.020123 -33.816048 10.108484 0.96083349 0.20846802 0.18259245
63.140499 -32.550282 6.8753633 0.98111343 0.13755257 0.13599928
63.915092 -34.609196 1.6698194 0.98562115 0.16737416 0.023170166
64.156876 -35.249348 4.571075 0.95813781 0.28195009 0.049759619
63.979923 -35.316807 6.9485526 0.856785 0.49255738 0.15266547
63.40522 -35.328144 9.668088 0.74286437 0.6639809 0.085333474
64.655739 -35.231808 9.0961285 -0.13860229 0.98070669 -0.13785426
59.091919 -31.002607 22.188734 0.93096417 0.0040863981 0.36508787
60.284931 -30.171055 18.788181 0.94917423 0.0020740952 0.31474432
60.505867 -31.647438 18.207825 0.94598794 0.093834497 0.31032526
44.143536 -31.030409 44.602737 0.68316072 0.047885101 0.72869641
28.230978 -28.9505 56.325966 0.46899754 -0.085387357 0.87906224
52.155174 -31.198441 35.144836 0.82300013 0.068051986 0.56395
61.92963 -32.487385 13.74651 0.96758264 0.12024119 0.22209461
55.125854 -31.9459 30.51717 0.86922735 0.099593654 0.48427767
57.142712 -32.742374 26.955757 0.8889755 0.13081029 0.43887508
54.264339 -30.658213 -35.555744 0.86506194 0.052332133 -0.49892801
58.305435 -30.414375 23.796469 0.90867919 0.030767959 0.41635978
46.860733 -31.827663 -45.650238 0.7367363 0.12127443 -0.66521591
54.505398 -34.001705 32.254436 0.84441185 0.13051446 0.51955229
61.44202 -32.423882 -18.397141 0.96895403 0.13913052 -0.20437931
60.871971 -32.208332 -20.762117 0.9472242 0.16147074 -0.27693605
59.93655 -33.090786 -24.162306 0.91104943 0.25028229 -0.32763979
59.642769 -33.065708 21.227423 0.93200147 0.10559355 0.34673229
58.343498 -34.191235 24.923222 0.9043712 0.12812281 0.40705934
60.625084 -35.042889 19.442507 0.94294554 -0.005412499 0.33290303
61.282207 -32.64397 16.09683 0.95193774 0.11054976 0.28564554
62.019188 -35.150173 14.815025 0.96558094 -0.041264102 0.25680891
52.965328 -33.902332 34.670517 0.82377434 0.093154974 0.55921209
58.803455 -32.787102 23.328533 0.92307746 0.10649462 0.36957651
62.679504 -34.772301 12.129689 0.95708722 0.21022804 0.19947001
15.00625 0.090043746 39.985416 0.18670471 0.86259931 0.47017428
60.807297 -33.922581 -22.12059 0.925304 0.24069427 -0.29305071
55.795021 -34.427803 30.301134 0.86876076 0.10624126 0.48370183
54.390324 -32.56039 -35.542915 0.85614407 0.12018554 -0.50256622
17.835272 0.84146029 37.055527 0.1848231 0.90592444 0.38097408
22.564104 -0.14139073 36.597477 0.30036199 0.80293989 0.51484966
29.152868 1.7797832 24.650097 0.1878759 0.96790743 0.16690658
31.489855 1.1927013 24.857336 0.24969801 0.9453814 0.20953496
33.177769 1.1317689 23.130154 0.28838933 0.93416631 0.2101547
35.942566 1.4682724 16.911535 0.24823543 0.95851821 0.14007896
36.774918 1.6422224 13.540578 0.22927375 0.96913278 0.090637907
25.7379 0.93451667 31.634199 0.26685384 0.91189945 0.31181467
30.098654 0.75865024 28.129 0.27655137 0.92815983 0.24907564
37.558586 0.62089968 18.582182 0.39479175 0.89259243 0.21775727
38.064644 1.6387171 10.141881 0.26487151 0.95955229 0.095407039
40.360565 1.181789 7.2279663 0.38606516 0.92011333 0.065918051
43.119961 0.11096568 4.1703601 0.48742998 0.87004936 0.073662117
20.898882 -1.5778663 39.623775 0.33938903 0.71657783 0.60936964
38.156979 1.0179361 15.590907 0.35993478 0.91640031 0.17509243
44.035942 -0.45857114 1.9740309 0.6465354 0.76131094 0.048965912
30.083439 -0.6870271 31.74737 0.41400307 0.79270732 0.44745564
40.923328 0.16714899 13.173053 0.48923558 0.85345501 0.17961954
42.343117 0.12291646 8.3539457 0.51868403 0.84724134 0.11466908
31.429531 -0.21165892 29.534245 0.42742398 0.80872554 0.40406904
35.95697 0.48242044 21.778057 0.36730245 0.89775229 0.2431661
41.304928 0.4809958 10.191881 0.44871905 0.88500232 0.12418599
23.344303 -2.6625776 39.282295 0.39358717 0.65713102 0.64285916
39.455612 0.72940964 14.409846 0.41139033 0.89641261 0.16493155
33.237881 0.22120105 26.316351 0.37893155 0.87628901 0.29753733
43.788303 -0.70994562 7.4374084 0.61504298 0.77724767 0.13269538
44.383533 -0.73523742 4.3111157 0.67199731 0.73775297 0.064343356
38.400402 -0.68103719 21.275433 0.53737777 0.77146077 0.34069541
42.560162 -0.67000872 11.898212 0.59243387 0.78301471 0.18949939
46.500046 -2.4161093 -1.6359242 0.7498585 0.66148257 -0.012369322
27.030996 -1.7930419 35.885738 0.43640953 0.68989098 0.57757866
39.562122 -0.34523702 17.763617 0.49226531 0.83773357 0.23638403
34.301006 -1.0894232 27.888622 0.48165908 0.77905881 0.40133783
35.861904 -0.38282552 24.27475 0.4626807 0.82424486 0.32641521
39.925602 -1.1085696 19.726322 0.58806789 0.74683851 0.31049705
41.549152 -1.2997826 16.795275 0.60664296 0.75046533 0.26227105
43.836174 -1.4920658 10.878328 0.65292525 0.73629153 0.17766094
32.112701 -2.8535838 32.927376 0.51369792 0.67418474 0.53065002
34.168846 -3.1907368 31.257845 0.55165672 0.65912676 0.51110345
34.434425 -2.3561633 29.730028 0.54811919 0.68871671 0.47458887
36.50462 -1.6006471 26.15517 0.56249422 0.71371645 0.41738358
43.577549 -2.3116777 14.370077 0.6811828 0.68476254 0.25901762
47.510513 -3.7464826 1.5787449 0.77257228 0.63220757 0.058698516
42.183167 -3.4892526 20.176683 0.70474535 0.6233201 0.33883035
26.24938 -3.3818259 38.230793 0.43990323 0.6404562 0.62952447
29.424263 -4.4899745 36.918892 0.5063923 0.57763416 0.6402387
45.598064 -2.3861415 7.3747544 0.72714138 0.67282581 0.13627474
46.68594 -3.0807436 3.7723298 0.74018717 0.66724461 0.083112158
27.855301 -5.4456792 39.078316 0.51430947 0.55443317 0.65428561
37.81332 -2.0959983 24.858723 0.59753996 0.70178008 0.38787982
44.632561 -4.2159176 15.944882 0.7365846 0.60870522 0.29482388
45.070129 -2.9501479 11.737674 0.73363173 0.64533496 0.2129021
40.93388 -3.6071546 22.737453 0.64403039 0.65856373 0.38925415
30.160566 -2.9817455 34.917931 0.50413096 0.63135368 0.58927459
47.258194 -4.6769938 8.5381174 0.79145783 0.57993239 0.19306186
46.237705 -3.8964951 10.056949 0.79343635 0.57163179 0.20903553
37.916302 -3.9249382 27.695379 0.6279701 0.62905645 0.45819387
48.562042 -5.4379148 2.8835664 0.82449901 0.55811357 0.093330622
26.502275 -5.8584356 40.375374 0.48767912 0.51373422 0.70586556
49.687794 -7.1334796 2.1824789 0.87003422 0.48858318 0.065779336
23.772205 -6.8527198 42.672325 0.4288635 0.50714815 0.74758077
34.292492 -5.3935518 33.478352 0.57394868 0.57002306 0.58792573
46.034958 -5.0766978 13.969744 0.77924514 0.57565999 0.2477753
49.675198 -6.9129591 -0.53041857 0.87333149 0.4870168 0.010329705
47.461838 -4.4792886 6.1955318 0.80715376 0.57962215 0.11198657
24.198919 -9.884594 44.317482 0.45003766 0.43024656 0.78253055
25.656681 -8.0105391 42.28437 0.47022879 0.46608526 0.74943274
32.710026 -6.2651138 35.739479 0.57244384 0.52699423 0.62816012
40.535851 -6.7639961 27.35931 0.69925034 0.5264523 0.48362899
40.13868 -4.1975017 24.800646 0.67657143 0.59105211 0.43921342
48.559097 -6.7106376 8.8700714 0.84794676 0.50434488 0.16316427
49.257187 -7.1625786 5.9369259 0.86362249 0.48927262 0.12152533
32.173504 -7.606328 37.307217 0.5614596 0.48978579 0.66698796
37.334572 -4.8535366 29.607889 0.64017797 0.56907088 0.51607221
42.671482 -5.9994793 22.96133 0.74629086 0.52924502 0.40367043
36.606556 -6.4474154 32.071323 0.64093184 0.51556575 0.56868118
42.483727 -7.4782701 25.069204 0.74836689 0.49082583 0.4461357
43.950047 -4.9199443 18.980061 0.75887108 0.55372417 0.34278923
44.88763 -7.1571918 20.13139 0.78605574 0.49172878 0.37459198
27.084055 -10.302934 42.769222 0.49016052 0.42695588 0.75990218
29.918427 -8.3911953 39.591568 0.54370278 0.46638286 0.6977638
46.21339 -6.3409567 15.861021 0.80233788 0.50940329 0.31106615
28.181019 -9.0225182 41.250393 0.5115304 0.45087403 0.73147053
35.332062 -7.3474321 34.057777 0.61632329 0.47245407 0.63002592
47.418755 -6.765893 12.894016 0.83507919 0.49526951 0.23948038
34.984791 -9.8296452 36.156929 0.62658066 0.44872043 0.63721788
31.464138 -9.0369568 38.689468 0.55127549 0.42460504 0.71819633
31.926134 -11.405247 39.743053 0.57418799 0.39847779 0.71520877
48.045925 -9.4186192 15.827413 0.83870173 0.45438567 0.30018821
44.272289 -8.6790457 23.006433 0.78528196 0.45632374 0.41845068
46.836857 -9.5731297 18.920732 0.81997836 0.43930674 0.36694017
48.600128 -7.9242263 11.248304 0.84538192 0.47751224 0.23939806
50.230904 -9.2677717 6.2392702 0.89298129 0.42697528 0.14239527
26.11479 -12.409359 44.465057 0.47648722 0.38042915 0.79261184
41.82473 -9.0910368 27.615744 0.75194615 0.43636531 0.49412781
49.308968 -10.802804 13.686499 0.87051934 0.42371598 0.25032172
49.649517 -8.9796524 8.995225 0.88897622 0.42431957 0.1722621
37.712368 -9.5700617 33.289368 0.66309243 0.42862666 0.61366737
40.08289 -8.6823788 29.803518 0.70188177 0.46197814 0.54216063
45.794331 -10.790881 22.489103 0.80189353 0.43397123 0.41065288
40.3228 -12.122593 31.969486 0.71131098 0.39053914 0.58439362
39.140633 -9.4970627 31.512304 0.68684071 0.43937078 0.57896727
44.312927 -10.43009 24.839571 0.78346807 0.42698768 0.45150787
48.281525 -11.339031 17.544329 0.85175502 0.38852265 0.35151595
36.703793 -12.109263 35.958462 0.65054446 0.40801746 0.64055735
50.935974 -11.53088 8.3503542 0.89653522 0.41201195 0.16269843
27.39336 -14.445162 44.636703 0.51117301 0.34656423 0.78650832
29.084606 -12.264488 42.486122 0.53820378 0.395237 0.74439532
29.697811 -14.512 43.021515 0.53883249 0.34128135 0.77018613
33.665821 -10.792811 38.134991 0.59320152 0.40152475 0.69777489
37.066837 -11.003332 34.847321 0.66137004 0.40416804 0.63185281
50.66832 -13.659302 13.554166 0.89273202 0.37003925 0.2571004
50.501354 -11.650703 10.797963 0.88858962 0.40495074 0.21546096
31.668394 -13.901905 41.398937 0.58258837 0.36736459 0.72500622
42.149429 -12.448816 29.897789 0.7423228 0.38943747 0.54524791
47.098904 -11.679004 20.640484 0.83963972 0.38406414 0.38405707
51.736965 -13.731041 9.1696634 0.91539097 0.36104628 0.17805868
3.5511763 -25.358532 56.754826 0.052100915 0.76202947 0.6454429
3.7863495 -24.341629 56.363636 0.092966937 0.57078737 0.81581789
31.670891 -16.028908 42.35014 0.57183236 0.32393959 0.75370473
38.201126 -13.123255 34.986698 0.67472029 0.3837685 0.63045567
43.603825 -12.26091 27.613146 0.77806288 0.3926681 0.4903366
45.853626 -12.727014 24.125271 0.81544209 0.37820596 0.43819457
48.817947 -13.875204 18.866722 0.86114794 0.36451316 0.35433659
49.411945 -12.488075 15.922844 0.87492985 0.37406483 0.3075276
5.8782449 -24.492258 56.141739 0.12324555 0.55072993 0.8255344
28.84037 -16.374966 44.471855 0.53044397 0.31741175 0.78605282
35.94976 -13.852558 37.775124 0.6380192 0.35759205 0.68195266
51.726494 -14.727625 11.181462 0.91211092 0.35348544 0.20760925
53.208652 -16.60742 7.300046 0.9386394 0.3117111 0.14762154
33.091499 -17.02738 41.620102 0.60348201 0.3025178 0.7377618
34.584282 -15.214599 39.492325 0.60321224 0.341221 0.72090441
36.927853 -16.619682 38.143883 0.65104651 0.30103853 0.69678849
41.68277 -14.849099 31.912828 0.73807734 0.34942192 0.57718831
44.830204 -14.047205 26.935343 0.80352575 0.35097831 0.48079157
50.230827 -16.094366 17.616869 0.87576765 0.34039083 0.34229392
38.643314 -15.310857 35.810246 0.68346763 0.33897457 0.6465047
39.691479 -13.517591 33.597832 0.70228529 0.36353335 0.61207753
43.451771 -14.895473 29.657389 0.76789421 0.34460416 0.53998733
46.580372 -14.91362 24.425419 0.8302415 0.34220487 0.43999425
52.195747 -16.419621 11.673969 0.9249112 0.29812297 0.23592785
28.267248 -18.482517 45.654812 0.51733083 0.29160726 0.80457067
53.270889 -18.073692 9.4024639 0.93428069 0.2973966 0.19665888
26.185257 -20.911053 47.721558 0.47140723 0.28860742 0.83335525
48.220039 -14.516303 20.95595 0.85140747 0.34522191 0.3948763
31.184095 -18.62578 43.701878 0.55973989 0.29151291 0.77570069
39.905682 -17.922434 35.732246 0.69500571 0.29737043 0.65462804
41.815758 -17.236774 33.235718 0.73405123 0.31814307 0.5999614
50.840824 -15.857557 15.6887 0.89032114 0.33996418 0.30290687
51.836128 -17.014011 13.929196 0.92053092 0.29510272 0.25600263
51.455696 -18.318563 16.431505 0.90959376 0.28801477 0.29947707
54.248894 -18.780672 4.3865328 0.94595927 0.30180353 0.11864091
23.591682 -21.579521 49.377419 0.43043721 0.29377648 0.8534748
35.244106 -18.690128 40.505013 0.62320626 0.28952065 0.72649282
46.168835 -17.035597 26.841127 0.82202995 0.31580058 0.47385302
33.155289 -19.92054 42.653214 0.60238391 0.27414536 0.74965191
43.374889 -17.356804 31.213434 0.77083224 0.29843965 0.56280679
44.951717 -17.24964 28.958752 0.79907399 0.29689443 0.52281404
55.394745 -21.933411 1.0339643 0.94161135 0.33439055 0.039383009
27.355276 -24.378981 48.430988 0.40350926 0.57320035 0.71317714
28.48782 -22.781433 47.025906 0.50421315 0.38667351 0.772174
28.91288 -21.200163 46.215282 0.52035785 0.28765613 0.80404085
34.70253 -22.564297 42.300869 0.59806901 0.35412884 0.71896195
37.708511 -19.442019 38.492157 0.668248 0.2733517 0.69189841
45.008736 -19.83844 30.033531 0.79380661 0.27999401 0.53988373
47.606647 -17.970392 24.880924 0.83767337 0.3022863 0.45489147
52.352165 -19.829302 14.748079 0.92391765 0.27963457 0.26111427
52.6021 -18.926132 12.726833 0.92934597 0.27614504 0.24507119
60.267025 -24.643005 -20.472475 0.53151709 0.83575803 -0.13783382
54.967361 -21.332869 4.9884396 0.94372112 0.30476996 0.12847473
31.220915 -21.647272 44.805244 0.56236082 0.28198516 0.77732539
36.327343 -21.354841 40.598454 0.64131832 0.28305864 0.71315408
48.602795 -16.971315 22.126331 0.855717 0.31355989 0.41161695
56.110077 -24.397163 -9.950098 0.61188239 0.78711635 -0.077768214
50.72081 -18.553492 18.688908 0.88010371 0.30147257 0.36678579
54.970654 -20.774542 2.8346276 0.95115852 0.30202088 0.063882127
24.48826 -25.484453 51.571587 0.24656935 0.8511942 0.46332711
22.209068 -24.173758 50.965225 0.36627507 0.45895293 0.80944717
43.178406 -20.333109 32.911865 0.7689665 0.2813133 0.57406729
50.153084 -20.022114 20.997366 0.87240607 0.27721119 0.40256876
54.766148 -22.378841 8.2477589 0.92146015 0.3511599 0.16612609
57.937069 -25.215858 -7.6166148 0.43474406 0.89988327 -0.034751013
57.79118 -25.318718 -10.796057 0.22601511 0.97381109 -0.024681458
41.579315 -19.856516 34.723392 0.71936709 0.27594686 0.63746703
47.321098 -21.0352 27.188124 0.83067089 0.27899238 0.4818185
46.361374 -19.089796 27.516411 0.81769502 0.26813555 0.50939012
48.665886 -19.404057 23.678236 0.8603434 0.27600563 0.42852086
53.547237 -20.75456 11.635585 0.92525798 0.29827765 0.23436743
25.379255 -25.058243 50.349419 0.29576027 0.75826073 0.58100486
39.254143 -20.801996 37.498505 0.67814898 0.28924352 0.67561245
55.616146 -23.754728 6.0709324 0.83673853 0.53619224 0.11120523
29.930916 -25.436573 48.082291 0.33883807 0.78986424 0.51117831
32.822342 -22.981934 44.035892 0.55271482 0.40828672 0.72650409
52.041325 -21.220095 17.25968 0.90566134 0.29349169 0.30600679
58.297993 -25.412334 -3.6017768 0.29354799 0.95583683 0.014335273
27.702665 -25.792238 50.648983 0.19897744 0.9192813 0.33960259
44.561409 -23.127052 32.410706 0.7696811 0.3356038 0.54310322
56.451633 -24.301762 -1.4170558 0.77508628 0.63159811 0.018032759
53.551868 -22.798944 13.94191 0.89074832 0.37883979 0.25109342
55.723614 -23.570335 4.1700134 0.86010534 0.50486457 0.073010728
40.173557 -23.519176 37.814949 0.64232528 0.46338803 0.61048323
41.732109 -22.216759 35.59713 0.71055943 0.30055827 0.63621545
51.230629 -21.061884 19.262072 0.89345318 0.26048046 0.36591157
52.106293 -23.217871 18.566069 0.82574105 0.45635393 0.33150092
26.387707 -26.094257 57.486183 0.42357257 0.24812575 0.87121743
38.090237 -23.587101 39.928528 0.61577487 0.41474 0.66993439
51.32542 -22.988186 20.356598 0.86580443 0.33607954 0.37071994
54.704556 -23.64464 10.777251 0.86570889 0.45267668 0.21361659
56.23341 -24.218264 2.3623323 0.80679113 0.58889538 0.047858272
36.445652 -24.658419 42.290089 0.53551668 0.57533234 0.61823499
49.890625 -23.059162 23.601271 0.83420527 0.32998613 0.44182673
48.030499 -24.05798 27.578648 0.8024295 0.39981753 0.44300437
55.420479 -24.953241 12.312466 0.60252476 0.78142929 0.16227201
29.891508 -25.368349 55.235741 0.32188633 0.69681609 0.64096528
42.781231 -25.133909 36.420212 0.56300855 0.67141211 0.48189962
42.632507 -23.949608 35.463287 0.68172443 0.41514796 0.60241508
47.477608 -23.864609 29.114292 0.78528661 0.38723797 0.48308563
46.184555 -22.81995 29.99028 0.78675932 0.33100817 0.52100229
50.742191 -23.337751 21.930956 0.85002726 0.36001146 0.3845067
63.769608 -25.464001 -3.5393269 0.96953058 0.2449625 -0.0019703722
31.214195 -24.885105 53.801182 0.26453057 0.85674566 0.44273058
45.138828 -24.431782 33.019421 0.70921397 0.51661474 0.47971314
51.562996 -24.537924 22.100348 0.7160244 0.63470626 0.29061499
53.099407 -25.195078 20.123585 0.55991215 0.78917611 0.25238743
33.382439 -25.390902 53.033249 0.31761456 0.81478512 0.48502186
34.899048 -25.678896 52.486668 0.52861464 0.38103649 0.75853664
62.106758 -24.703453 2.0335066 0.37466592 0.92707735 0.012368108
29.770718 -26.501774 55.84214 0.46343958 0.14823452 0.87364191
35.768612 -25.089758 50.652893 0.31804329 0.84653723 0.42687604
30.643129 -28.291847 55.128296 0.49525821 -0.11289646 0.86137891
32.729141 -26.501682 54.122025 0.53122526 0.10767958 0.84035993
42.296333 -25.031158 45.12735 0.25144017 0.94412172 0.21310113
62.943748 -25.06266 6.0438647 0.6986416 0.71316534 0.057403356
34.0075 -28.550528 52.994732 0.55117017 -0.071291178 0.83134174
37.502609 -26.198378 50.84729 0.56333745 0.21470889 0.79784149
40.734776 -24.792297 46.597492 0.25590888 0.92570215 0.27854291
45.554081 -25.18541 42.562401 0.28701693 0.91863221 0.27154395
-10.374497 -27.221975 -66.962761 -0.15900321 -0.0987565 -0.98232639
63.815895 -26.162022 2.1825116 0.99078685 0.13285418 0.026292836
39.775158 -26.349247 49.129929 0.63845026 0.023915129 0.76929152
50.134159 -24.810194 33.965359 -0.024775008 0.99959064 0.014309119
52.182808 -24.980007 31.286232 0.084329784 0.99575663 0.036841061
54.14444 -25.070713 27.642681 0.008642232 0.99995333 0.0043084621
56.321972 -24.956652 23.444498 0.036137167 0.99868441 0.036381848
36.758652 -28.970346 51.110386 0.58825737 -0.069256283 0.80570269
42.620308 -25.981359 46.428181 0.5759207 0.49236369 0.65260506
49.725525 -25.216511 37.849567 0.399661 0.88053697 0.25480512
48.448467 -24.946329 37.026253 -0.010245221 0.99867529 0.050424833
50.660198 -25.035646 34.976978 0.26221821 0.94586855 0.1912439
59.436432 -24.698994 15.595071 -0.032113895 0.9994781 0.0034858391
63.709476 -26.853468 4.3034153 0.99311948 0.066555269 0.096354656
53.333508 -25.026354 31.694342 0.20344813 0.97028923 0.13094935
62.208527 -25.723913 13.368896 0.84838927 0.50624329 0.15476851
63.40976 -25.831068 6.7863617 0.98995829 0.0051241042 0.14126699
40.695431 -26.771719 48.23885 0.65128505 0.074512333 0.75516611
42.712917 -27.848429 46.33894 0.68045694 -0.078262389 0.72859693
45.18478 -25.993189 44.185524 0.68543452 0.17033432 0.70793062
55.737705 -25.063879 27.566788 0.29816917 0.9411369 0.15923709
58.912525 -24.970064 21.101498 0.3536154 0.92761487 0.12036088
60.214569 -25.052719 17.586952 0.58735496 0.78384656 0.20149113
63.005569 -25.985193 9.942524 0.96763432 0.16911863 0.18730398
63.366898 -28.405891 3.8742805 0.98806453 -0.13105641 0.080948293
56.98103 -25.749838 27.852173 0.85212862 0.26669621 0.45027763
57.897888 -25.065971 23.505283 0.30964378 0.93800032 0.15580779
61.76675 -25.97007 15.097924 0.92931855 0.092296116 0.35755903
62.576542 -27.276934 11.094712 0.97891706 -0.02441512 0.20279352
38.691898 -29.704294 49.433811 0.61849838 -0.053197332 0.78398335
48.59507 -25.566809 40.229355 0.46231514 0.77291101 0.43459544
54.86874 -25.677176 31.656097 0.81704634 0.29797488 0.49360538
58.36042 -25.845018 25.175142 0.86018753 0.33123565 0.38776326
60.980606 -26.356441 18.104294 0.94862175 0.18553331 0.2563085
63.019436 -27.690212 8.0601234 0.99002606 -0.045377146 0.13337633
47.497326 -27.959785 41.486088 0.74320853 -0.083298661 0.66385418
49.652031 -26.027122 39.441422 0.76688969 0.10879155 0.63249081
52.625702 -25.621696 34.849792 0.64537019 0.61111879 0.4582915
63.379307 -30.399597 1.3425175 0.99810588 0.043189649 0.043808121
34.364475 -30.523209 52.552914 0.52407885 0.024833031 0.85130757
51.733456 -26.289444 36.828899 0.76818937 0.37009233 0.52241445
50.147224 -27.15295 38.243523 0.80401349 -0.14673892 0.57622039
51.474766 -27.357262 36.438309 0.78841758 -0.14748617 0.59719807
56.516647 -26.300213 28.934002 0.88056713 0.097434059 0.46379748
61.436924 -27.613323 15.557648 0.96163434 -0.00099166937 0.27433279
62.791321 -28.916754 9.3631754 0.98546344 -0.046868309 0.16329503
63.042038 -29.880899 5.9651833 0.99548441 -0.013643657 0.093939029
63.218605 -30.047518 3.9710503 0.99628788 0.051468655 0.069003321
55.660065 -28.742826 29.647383 0.86506867 -0.079069495 0.49538291
59.642956 -25.79183 21.737045 0.9169004 0.21299498 0.33753043
59.817974 -28.406403 20.541868 0.93823993 -0.085989177 0.33512929
60.569756 -28.468567 18.146027 0.95080864 -0.10512084 0.29139754
61.127342 -29.862188 16.150169 0.96229088 0.0015305186 0.27201813
61.895798 -28.393602 13.561563 0.96816921 -0.10899185 0.22531997
58.739216 -24.478775 -23.48868 0.30039686 0.94837022 -0.10176326
60.748882 -24.596951 -17.437061 0.32171199 0.94410342 -0.071902893
62.050941 -25.067902 -14.972873 0.75005507 0.64387423 -0.15114038
61.34494 -24.556982 -9.8730974 -0.019731313 0.99971861 0.013167341
24.767405 -1.7074107 37.448055 0.37608805 0.72227222 0.58041424
19.109625 -7.2304816 45.378819 0.35354418 0.48037362 0.80265039
21.157642 -17.918604 49.409199 0.39536381 0.28465432 0.87330365
28.069637 -7.5229917 -44.198978 0.48915064 0.46227017 -0.73962009
33.892773 -9.905508 -41.127491 0.60504144 0.42831716 -0.67117006
32.350628 -11.372683 -43.445179 0.58940405 0.39778534 -0.70311433
28.095583 -9.7793531 -45.630848 0.50578302 0.42759392 -0.74923092
30.012171 -8.5303488 -43.578735 0.55018657 0.44659409 -0.70558375
30.427656 -10.533693 -44.465508 0.53360981 0.41137901 -0.73893696
30.381456 -12.367818 -45.448448 0.53940547 0.38465226 -0.74905562
26.705051 -11.416368 -47.449852 0.47607985 0.4032439 -0.78149998
28.031609 -13.215395 -47.515839 0.50506151 0.37027621 -0.77962077
27.599794 -16.749344 -49.261875 0.49320883 0.31674072 -0.81019777
25.576813 -15.918713 -50.111893 0.46356007 0.32703543 -0.82350469
30.219002 -15.110114 -46.940434 0.53766996 0.33502808 -0.77373588
34.247055 -15.306296 -43.841301 0.6189546 0.3394421 -0.70828968
32.545341 -14.592556 -44.92226 0.58024013 0.34545764 -0.7375502
30.073151 -16.864918 -47.659439 0.52967227 0.30680966 -0.79076868
33.468525 -18.261494 -45.781078 0.60103261 0.30077773 -0.74046773
31.893248 -17.95425 -46.872177 0.56555581 0.30384901 -0.76669574
30.238407 -18.892004 -48.394768 0.53887087 0.28712875 -0.79194397
28.734835 -18.072813 -49.033745 0.51170641 0.29150295 -0.80819714
35.26778 -29.421354 -55.662708 0.56685722 -0.034687281 -0.82308555
35.702507 -31.574301 -55.406742 0.57200074 0.09385208 -0.81486619
40.941181 -29.943615 -51.254768 0.66116291 -0.024624377 -0.74983811
31.510988 -31.312103 -57.925251 0.50350702 0.085430168 -0.85975718
43.421307 -30.565319 -49.033813 0.68731654 0.03301676 -0.72560722
30.66424 -33.607376 -58.94392 0.49049515 0.13732734 -0.86055547
58.51218 -33.00935 -27.480965 0.8953352 0.18503954 -0.40513611
39.262718 -30.136789 -52.678692 0.62831026 0.017099148 -0.77777493
37.712257 -29.98041 -53.898594 0.59676981 0.060112655 -0.80015767
33.004005 -32.74876 -57.522072 0.51279563 0.19717334 -0.83556169
36.669621 -33.237194 -55.022091 0.56878805 0.16551112 -0.80565882
34.494289 -31.531818 -56.3134 0.53356463 0.086443178 -0.84133011
40.753311 -32.064011 -51.669613 0.65079981 0.11094254 -0.75110012
45.290142 -31.464375 -47.296799 0.72037125 0.085512124 -0.68829703
42.202599 -33.644669 -50.671768 0.66421658 0.098568089 -0.74101335
37.697174 -34.417664 -54.582653 0.59756196 0.01945184 -0.80158675
63.481087 -28.33617 -5.8184896 0.99325955 -0.091504872 -0.071150355
55.798515 -33.688965 -33.366566 0.83851802 0.24861147 -0.48485038
47.694744 -33.722103 -45.179474 0.75806141 0.095346324 -0.64517599
61.721443 -34.885429 -20.17231 0.93384951 0.26183894 -0.24365026
57.460995 -33.804543 -30.060463 0.87055552 0.29089636 -0.39687827
56.290398 -31.680243 -31.790531 0.88278729 0.13523199 -0.44988757
52.326164 -32.971962 -38.86832 0.82130224 0.084582642 -0.56418824
51.834263 -35.245495 -40.049458 0.81985772 -0.035354827 -0.57147473
16.108898 -31.824949 -64.896339 0.29588494 0.12689672 -0.94675726
23.235498 0.36278266 35.34597 0.3010681 0.85782725 0.41652191
23.339548 0.85967606 33.975277 0.2185272 0.93301386 0.28588623
23.518759 1.4650934 31.536501 0.15023114 0.97048968 0.18862768
25.382278 -0.13675091 34.823036 0.35508716 0.82332242 0.44277915
27.856813 0.79632324 30.399952 0.29611999 0.89481276 0.33410048
7.2991533 -25.364599 59.951912 -0.078316912 0.97050554 -0.228003
60.924141 -35.084377 -23.266611 0.90624124 0.33610886 -0.2564325
58.16951 -35.011276 -31.030474 0.5171634 0.82074761 -0.24272491
54.433952 -34.678238 -36.228165 0.8131001 0.23488374 -0.53263301
13.866732 -25.060631 59.428165 -0.029643597 0.99343646 -0.11047729
11.743421 -25.691795 58.554874 -0.036851719 0.93929577 -0.34112388
17.246487 -25.057373 58.17981 -0.093248472 0.94777036 -0.30501798
60.068069 -35.167866 -26.348051 0.86044377 0.37355727 -0.34654209
17.612144 -25.834135 56.630421 -0.043274008 0.98419487 -0.17172004
24.363235 -24.905682 56.128872 -0.0094848927 0.99991828 -0.0085741039
41.256153 1.2749736 -5.3723912 0.41931763 0.90734321 -0.030016705
39.985764 1.5348603 -9.3513899 0.32833672 0.94293267 -0.055433728
21.866814 -24.991127 56.911503 -0.05955952 0.98262447 -0.17578898
42.921398 0.54108012 0.10137439 0.51426375 0.85691059 0.035171036
45.621902 -1.627339 0.67262632 0.67135042 0.73927653 0.05252514
20.631931 -25.682695 55.947945 -0.12594208 0.93292123 -0.33733746
44.855839 -0.92560583 -2.7935977 0.64973456 0.76011467 -0.0084099183
41.534752 1.0862672 -7.6532788 0.39352289 0.91780949 -0.052587718
41.072884 0.95035791 -11.836618 0.44207275 0.89268398 -0.087675452
44.435013 -0.6261664 -5.4677606 0.59898823 0.79996312 -0.035666667
26.747665 -25.255913 56.302078 0.23153937 0.83626544 0.49704093
24.700712 -25.488079 54.752632 -0.15079845 0.93058681 -0.33356851
25.959871 -25.629805 53.762062 -0.11741673 0.96179181 -0.24732506
42.818848 0.20045322 -9.7750559 0.52106965 0.84787679 -0.097935826
43.934135 -0.3116281 -8.0269041 0.59104919 0.80415112 -0.063259587
29.184984 -24.969246 53.546242 -0.17184535 0.93846476 -0.29958811
59.092426 -35.124546 -28.008053 0.81605327 0.43455982 -0.38107058
26.490055 -25.942133 51.686558 0.026065204 0.99805051 0.05670689
46.186134 -2.2164981 -5.5397348 0.75154674 0.65849376 -0.039541248
40.542587 0.35143301 -17.661098 0.5019328 0.8448512 -0.18517558
38.582764 0.71092325 -20.984734 0.43794519 0.87942618 -0.18658425
36.953808 0.83623308 -23.859966 0.3892529 0.89266491 -0.22722575
36.109478 0.35276338 -26.876793 0.46536514 0.8282913 -0.31203964
33.552055 -0.066199437 -31.374361 0.46104166 0.8008675 -0.38216728
42.234482 -0.12422547 -14.67703 0.55612892 0.81451064 -0.16520618
40.458847 -0.7334016 -21.696218 0.60777223 0.74798 -0.2667186
38.863983 -0.24570569 -23.611902 0.52921516 0.8026945 -0.27497795
31.377371 -25.373035 51.326492 -0.20348513 0.92108846 -0.33194855
43.384666 -0.57646972 -12.722012 0.62870657 0.76483524 -0.1405534
29.469145 -25.782911 51.31982 -0.083659962 0.98604453 -0.14393431
44.917923 -1.7632318 -11.464195 0.69311428 0.70813143 -0.13469391
37.64027 -0.305383 -25.84828 0.54330647 0.78171462 -0.30617052
35.585861 -1.2009573 -30.929018 0.52556735 0.75109673 -0.39954057
42.170235 -1.0774056 -18.502178 0.63512421 0.73029095 -0.25157979
48.309105 -4.7351055 -0.24285997 0.8227517 0.56791329 0.023541043
41.083122 -2.3288622 -24.036087 0.66111386 0.67033583 -0.33701414
39.229713 -1.163187 -25.21039 0.61521196 0.70869488 -0.34534878
37.282394 -1.3826891 -28.942234 0.58930922 0.70153493 -0.40070361
31.988701 -2.1828361 -36.312263 0.50881231 0.69685298 -0.50547606
34.061211 -25.452156 45.158653 0.32761246 0.82577097 0.45909953
45.898964 -2.1981175 -8.2407799 0.72693598 0.68017161 -0.094502576
46.725185 -3.649497 -10.539493 0.77226186 0.618725 -0.14419071
34.847721 -2.0811863 -33.112129 0.56142944 0.67449766 -0.47942662
31.275631 -24.221111 45.690571 0.50707132 0.49072015 0.70857066
48.057167 -4.910975 -8.5440874 0.82277077 0.55642498 -0.11592862
47.362026 -3.6456726 -4.6891551 0.76660389 0.6407066 -0.042586725
40.861237 -3.7479441 -26.870937 0.69404161 0.59027451 -0.41216779
29.034849 -3.6541495 -40.507168 0.49353436 0.59492618 -0.63441843
43.947144 -1.9911637 -16.667465 0.68927968 0.68815941 -0.22656149
45.668816 -4.4519548 -17.431 0.77792257 0.56605822 -0.27279046
32.751884 -4.1933241 -37.837009 0.5714159 0.56611484 -0.59413612
30.7864 -3.2381697 -38.764462 0.52057695 0.61509097 -0.59216785
34.803101 -25.823938 46.161949 0.10598264 0.98784852 0.11367901
48.622509 -5.1718798 -3.3322072 0.83877915 0.54354006 -0.031838968
45.632725 -3.2768335 -14.654794 0.76215738 0.62102205 -0.18288743
42.836037 -3.1876616 -22.098017 0.70362145 0.64029837 -0.30811501
57.048275 -35.094006 -32.325008 0.72885776 0.57369787 -0.37368071
42.082218 -3.8886495 -24.934044 0.72596282 0.58530986 -0.3610962
50.612583 -8.7182922 -1.2088345 0.89746547 0.44104576 0.0058640274
34.127724 -3.1110189 -35.321846 0.58513123 0.60969794 -0.53468686
28.98041 -6.1837435 -42.843651 0.49056432 0.52857012 -0.6927917
51.069534 -9.7998533 1.0189967 0.90578872 0.42195016 0.038792066
48.007015 -6.6673846 -14.62064 0.83505273 0.51085716 -0.20423514
31.611807 -5.4949846 -39.992516 0.56279922 0.53978169 -0.62601346
25.560137 -5.7427607 -44.757114 0.45960996 0.51448047 -0.72392577
38.767536 -25.280003 41.076672 0.49301487 0.6767804 0.5467217
47.795872 -5.5695229 -12.276623 0.81798261 0.55143464 -0.16378121
43.981045 -3.6171134 -20.228214 0.73017657 0.61663657 -0.29428142
37.661152 -3.629159 -31.682718 0.62735057 0.61308467 -0.480165
50.336815 -8.2694893 -3.8401306 0.8805117 0.4724775 -0.038266663
47.273632 -6.1085935 -15.940547 0.8244679 0.50580829 -0.25379246
43.167374 -6.054718 -26.022966 0.75028634 0.5284794 -0.39721531
39.052216 -3.2141864 -29.158661 0.67325729 0.60627824 -0.42326272
40.068016 -25.695072 40.863892 0.090109244 0.98768318 0.12791502
50.115551 -8.1673117 -5.8272362 0.88419718 0.46246758 -0.065720111
48.764252 -5.7750545 -7.1751218 0.84426147 0.53161043 -0.067918859
36.822948 -4.8902178 -34.139091 0.63299114 0.55641025 -0.53826553
34.720722 -7.2754641 -38.571663 0.61229557 0.49204054 -0.61886209
49.354305 -8.7391396 -13.666989 0.87766957 0.43589607 -0.19922499
34.647552 -5.3469105 -37.017914 0.62184078 0.52997261 -0.57657868
40.645279 -6.471417 -30.648201 0.71224928 0.53325713 -0.45644048
39.207993 -6.0402236 -32.326584 0.68543375 0.53026444 -0.49899912
37.992466 -6.7936006 -34.539406 0.67192513 0.48792025 -0.5571807
33.29203 -7.4983091 -40.097797 0.59935606 0.46788231 -0.64950639
30.598173 -6.3180327 -41.662865 0.5664652 0.49148995 -0.66147923
40.749245 -25.426035 39.316021 0.40468845 0.83659446 0.36923841
45.095337 -6.3163071 -22.401796 0.77970827 0.5286243 -0.33557615
51.524384 -10.615237 -3.8050621 0.90737236 0.41821256 -0.042115059
51.768871 -11.1856 -2.1145778 0.92054206 0.39044896 0.01232304
51.519547 -11.050516 -6.4675231 0.91255307 0.40136483 -0.078442693
44.368088 -8.3837957 -26.50383 0.79141641 0.4453347 -0.41873276
42.600121 -7.3712449 -28.636288 0.74352217 0.48997113 -0.45508587
43.231422 -25.680984 37.511143 0.098566242 0.99032879 0.097640552
50.228039 -8.9146662 -9.2300291 0.88549566 0.44904062 -0.11941433
46.98468 -6.9510961 -18.42807 0.82298726 0.49204341 -0.28387538
45.787289 -24.51025 31.587666 0.6709668 0.58228177 0.45907679
49.314289 -7.9706779 -11.862465 0.87400234 0.46027094 -0.15579
44.758831 -25.292576 34.450939 0.42650294 0.83147073 0.35602215
49.116104 -9.4998541 -16.081327 0.8663221 0.43386877 -0.24747507
46.930687 -8.4697361 -21.036623 0.83019805 0.4554655 -0.32143784
45.875641 -8.3782024 -23.287146 0.80946982 0.45667443 -0.36906254
36.67239 -7.819469 -36.887535 0.65460646 0.46924379 -0.59270614
40.704899 -8.3893995 -32.472893 0.72334892 0.45952702 -0.5153653
46.505413 -25.736385 34.690189 0.10100482 0.99206239 0.07490094
47.895718 -9.4539623 -19.593319 0.85034907 0.43333238 -0.2985456
47.571564 -24.949999 29.443041 0.50484776 0.80340862 0.31569502
48.219601 -25.683578 32.598461 0.12047302 0.98753071 0.10133754
47.493832 -25.52244 31.890987 0.29679206 0.93013811 0.21623491
49.643803 -25.037174 26.587175 0.49312383 0.81041741 0.31631082
52.666676 -13.505599 -3.7866433 0.93046439 0.36548051 -0.025691522
51.264748 -12.354155 -12.295857 0.90525669 0.38804737 -0.17300147
50.34306 -11.251903 -14.360123 0.89652818 0.39598942 -0.1985689
46.223312 -10.968774 -25.712103 0.80467939 0.43341261 -0.40576419
39.300976 -9.317461 -35.07999 0.69767821 0.44268143 -0.56327462
39.184452 -11.158277 -36.583157 0.68592221 0.4139702 -0.5984475
35.72784 -9.9931574 -39.477501 0.63563693 0.42441535 -0.64485449
37.830883 -11.586274 -38.401379 0.66533655 0.39697945 -0.6322456
49.104218 -24.016542 25.612495 0.77341789 0.42316535 0.47197014
51.539227 -11.9541 -10.038665 0.91595089 0.38070318 -0.12688224
48.871353 -10.190965 -17.942196 0.85583788 0.43619937 -0.27797756
43.312706 -11.330927 -31.228968 0.77798843 0.41080672 -0.47536492
52.208641 -13.273623 -8.1798983 0.93112397 0.3489787 -0.10593399
50.401176 -12.813596 -16.932964 0.89109004 0.37568897 -0.25459054
34.956703 -12.608177 -41.829353 0.62865543 0.38476318 -0.67583251
53.591221 -15.795144 -1.9566673 0.94360036 0.33104968 -0.0049504256
47.555847 -11.179355 -22.966057 0.8445847 0.41014272 -0.34417963
41.170124 -13.108449 -35.515171 0.72827077 0.36562344 -0.57960439
53.401775 -15.534845 -4.2598329 0.94391835 0.32727343 -0.043706417
52.970451 -14.555562 -5.9826207 0.93453687 0.34671286 -0.080194242
48.457668 -13.944115 -23.557425 0.86226183 0.35496718 -0.36125174
45.64999 -12.911279 -28.462435 0.79324788 0.39460087 -0.46373257
47.11301 -13.271262 -26.262651 0.84434903 0.35288408 -0.40317169
42.108681 -11.935013 -33.445396 0.7378459 0.40693453 -0.53850502
36.554047 -12.971158 -40.404659 0.64906782 0.382599 -0.65751725
49.141556 -12.468224 -20.441334 0.86793202 0.3872554 -0.31101009
52.545189 -14.813179 -10.139894 0.93039727 0.34450909 -0.12519747
39.35331 -13.604522 -37.85664 0.69260162 0.36018094 -0.6249581
52.356506 -25.419281 23.04167 0.3772113 0.90860289 0.17931071
51.733574 -14.885122 -14.925001 0.91040301 0.35101444 -0.2189869
51.14513 -15.099174 -17.250017 0.9107883 0.32563379 -0.25382534
52.724464 -16.199387 -12.668004 0.93185902 0.32141924 -0.16831063
54.633362 -19.303921 0.13883072 0.95486528 0.29587987 0.026217993
46.572517 -14.879038 -28.505592 0.82323146 0.33547246 -0.45798263
53.616673 -16.994205 -7.8944931 0.94264597 0.31801939 -0.1014016
43.537056 -14.871099 -33.410198 0.77904397 0.34081766 -0.52624506
53.456512 -24.677145 18.308016 0.65957111 0.71172512 0.2416884
53.712948 -24.27626 15.743485 0.77976316 0.57410604 0.2497433
45.45966 -15.267326 -30.696695 0.80441678 0.3295795 -0.49425796
52.836086 -17.806913 -14.533496 0.93049651 0.29882547 -0.21184817
48.121552 -15.836208 -26.083454 0.8593021 0.31031716 -0.40657476
55.125599 -25.501835 17.052166 0.21532929 0.97392541 0.071431637
53.856941 -18.358114 -10.059736 0.9478302 0.28900462 -0.13451459
38.245281 -15.350727 -40.008373 0.68034202 0.33178154 -0.65349501
36.328175 -14.485876 -41.524311 0.65807736 0.33986855 -0.6718806
50.686424 -15.484816 -19.358053 0.90159941 0.32862997 -0.28128433
37.738285 -17.15023 -41.335228 0.67683697 0.3153106 -0.66518492
54.171341 -18.028215 -5.5421181 0.95108551 0.29882404 -0.078361645
42.323509 -16.511255 -35.893524 0.75211024 0.30902222 -0.58209574
36.21143 -16.835449 -42.758259 0.64828396 0.30502135 -0.6976316
46.847446 -16.905764 -29.235949 0.83691245 0.28847292 -0.46514612
40.059624 -17.078182 -38.837563 0.69967681 0.30550772 -0.64584631
50.079796 -15.547452 -21.369911 0.88434398 0.32980987 -0.33039552
49.517254 -16.33029 -23.443401 0.87876004 0.30240598 -0.36923072
44.726871 -17.056229 -32.836399 0.80140734 0.29457775 -0.52054793
40.601002 -15.720984 -37.700203 0.71717292 0.3187035 -0.61975086
56.133423 -35.001972 -34.536205 0.60163563 0.72018981 -0.34548682
54.438091 -18.529991 -3.4164999 0.95255023 0.30384421 -0.018077763
55.032787 -20.682722 -4.7883492 0.95612574 0.28246349 -0.077704363
52.077362 -18.132816 -17.845346 0.91425186 0.30455869 -0.26718432
48.272842 -17.827778 -27.184135 0.85270196 0.29513666 -0.4310379
43.296555 -17.913754 -35.369015 0.7668398 0.29808983 -0.5684182
55.489521 -21.761248 -1.7898558 0.94910514 0.31490612 -0.0057960167
41.65696 -18.498554 -37.715034 0.73936045 0.2900314 -0.60764134
32.103924 -20.138992 -47.466396 0.55860084 0.27849555 -0.78128439
54.452892 -19.922777 -7.8595996 0.9554804 0.2790716 -0.095792852
53.144539 -20.860085 -17.055756 0.91850972 0.30690557 -0.24929681
49.786289 -18.403275 -24.309269 0.88035864 0.28856036 -0.37643254
37.157444 -20.208519 -43.317585 0.65518492 0.29160479 -0.69692135
55.625111 -23.112684 -5.4873033 0.93839085 0.33515534 -0.0842226
53.54813 -18.875677 -11.814324 0.94701767 0.2695612 -0.17462611
51.526928 -19.010485 -20.330004 0.90390927 0.29010016 -0.31430861
38.683281 -19.703777 -41.67926 0.69573057 0.28927132 -0.65748072
12.599893 -31.686995 -65.976944 0.23978011 0.15449087 -0.9584561
61.317757 -25.084213 14.708354 0.46817014 0.87853926 0.094791777
59.88747 -24.716908 13.797261 0.0049911672 0.99957156 -0.028839257
54.036766 -20.667074 -12.653706 0.93860352 0.31084079 -0.14967144
40.591484 -19.596939 -39.482468 0.71960676 0.27577591 -0.63727057
35.299599 -19.037703 -44.453186 0.63471806 0.30330405 -0.71073169
54.636379 -21.458799 -10.265517 0.94576937 0.29558352 -0.13472474
53.451191 -20.349857 -15.19 0.935655 0.2891643 -0.20232129
47.248211 -18.9508 -29.737978 0.83792901 0.27578941 -0.47097248
45.664303 -18.875938 -32.446133 0.81962472 0.28166184 -0.49888065
50.201012 -21.208204 -25.404467 0.86815286 0.29765487 -0.39712986
48.769341 -19.657022 -27.478498 0.86063981 0.2685827 -0.43262273
61.422947 -24.540133 5.9124503 0.006110766 0.99996758 -0.0052466886
57.688679 -25.09355 2.1298282 0.47944799 0.87467414 0.071237847
56.236813 -24.2521 -6.526504 0.68279231 0.72796577 -0.062131967
51.996521 -21.841492 -21.739832 0.88883781 0.3080489 -0.33922434
40.374115 -21.523134 -40.384911 0.69180447 0.36540484 -0.62280488
44.458443 -19.874355 -34.841137 0.77447832 0.28787512 -0.56330389
62.696575 -25.145954 8.5505238 0.66271055 0.74035972 0.11261541
55.39806 -23.217829 -8.943058 0.91254157 0.39856434 -0.091729924
53.051605 -22.662174 -19.219271 0.89071918 0.35604852 -0.28257513
