# .PCD v0.7 - Point Cloud Data file format
VERSION 0.7
FIELDS x y z normal_x normal_y normal_z
SIZE 4 4 4 4 4 4
TYPE F F F F F F
COUNT 1 1 1 1 1 1
WIDTH 737
HEIGHT 1
VIEWPOINT 0 0 0 1 0 0 0
POINTS 737
DATA ascii
-96.492661 11.063494 -30.866318 -0.74307972 0.63757432 -0.20330152
-95.663353 13.605748 -25.102839 -0.74292678 0.65102595 -0.15564361
-93.123734 16.701952 -23.107323 -0.70287657 0.69416463 -0.15524153
-93.454468 18.300531 1.7038839 -0.70067978 0.71274441 0.032298945
-64.088348 1.7247221 104.82004 -0.50961334 0.85212016 -0.11910302
-95.954826 15.772072 -5.5196881 -0.7291109 0.68437523 -0.0052769878
-94.18943 16.566933 11.216857 -0.7190519 0.68608093 0.11071306
-94.894562 8.3153019 -42.762989 -0.73073083 0.61883849 -0.28822112
-63.110889 0.51234007 97.082359 -0.75306702 0.54128647 -0.37403089
-65.638115 1.5519657 106.205 -0.5527001 0.82627821 -0.10856743
-98.360428 11.840486 -18.375019 -0.75547779 0.6432516 -0.12442173
-96.761917 14.798657 -0.55678916 -0.73877603 0.67363721 0.020565081
-87.646774 10.560532 -53.780426 -0.67093623 0.64373672 -0.36803201
-99.514557 11.747613 -1.3478235 -0.75500178 0.65562081 0.011563279
-97.836792 11.770947 14.475187 -0.73854673 0.66023511 0.136522
-73.194511 -2.3960521 112.26559 -0.8413018 0.24399933 -0.48236465
-100.44718 10.642166 -4.5250983 -0.76353139 0.645639 -0.013040005
-100.27056 10.764133 2.1574073 -0.77796847 0.62725842 0.036218647
-70.223846 -3.6959937 110.90726 -0.33982393 0.92624253 -0.16307795
-100.93774 7.4391427 -24.7642 -0.76636362 0.62420261 -0.15184861
-102.46149 6.919848 -18.679735 -0.77991605 0.61628163 -0.10921487
-84.278702 6.0454392 -65.856979 -0.64888757 0.61157095 -0.45268735
-99.823677 8.8387165 17.776453 -0.76018155 0.62898904 0.16277839
-71.587509 -4.3790846 109.86909 -0.69437844 0.62273246 -0.36061472
-102.46471 8.1653051 -4.2492452 -0.79012692 0.61292988 0.0040540621
-73.044876 -5.2918649 110.01658 -0.84210449 0.32936934 -0.42705485
-101.11598 5.6376438 23.034946 -0.77255613 0.60361016 0.19700725
-73.862434 -5.7885494 111.95765 -0.8754921 0.16953667 -0.45251617
-81.515251 -4.6172814 132.37558 -0.91479224 0.19890678 -0.35155553
-103.24155 6.7963362 5.1812778 -0.7931096 0.60597068 0.061454531
-102.7091 6.6373734 11.041763 -0.77766126 0.62126583 0.096289776
-98.996437 6.1315441 -36.231247 -0.74588728 0.61854804 -0.24708398
-99.373672 8.3825207 -28.161896 -0.75615358 0.62705332 -0.18717834
-105.72974 3.7828166 0.49268317 -0.79855222 0.60138386 0.025531599
-90.713997 5.4339828 -56.547916 -0.6956746 0.59930021 -0.39607584
-94.18898 6.4151001 -48.069725 -0.72373503 0.61056018 -0.32159576
-102.7855 7.6144695 -10.37789 -0.78497684 0.61779433 -0.046276238
-84.202713 -8.4236965 136.8307 -0.9232465 0.17860357 -0.34017169
-81.238815 5.2814026 -70.933411 -0.62137091 0.60143971 -0.50216365
-105.23995 2.6402824 -21.803242 -0.80046773 0.58338767 -0.1375147
-106.30399 3.0538123 -7.0940495 -0.80676973 0.5905273 -0.020004539
-108.81264 -0.532121 0.87911701 -0.83793443 0.54520154 0.024923915
-108.81321 -0.86675203 6.1067939 -0.82895023 0.55556059 0.064761244
-87.330429 -9.5280905 143.63411 -0.90094864 0.12889692 -0.41433936
-107.58323 1.4876631 -3.7802701 -0.82508731 0.56499976 0.0024908998
-92.400909 -9.7217312 155.41953 -0.87438285 0.29100794 -0.38828975
-89.388374 -13.491228 147.308 -0.91342705 0.065045774 -0.40177128
-88.181488 -11.337196 145.04543 -0.89667171 0.11918531 -0.42635038
-110.00707 -2.311866 -6.0934367 -0.83908689 0.54335892 -0.026349433
-111.54646 -4.7982998 -4.4818368 -0.85748744 0.51450109 -0.001997327
-88.241142 -14.338923 144.66629 -0.89182311 0.059152592 -0.44850025
-90.558479 -11.389577 150.44377 -0.90252995 0.07869558 -0.42337528
-90.055489 -15.021337 148.63397 -0.8821224 0.12194102 -0.45496216
-95.515274 -13.727263 159.93919 -0.90433407 0.17405057 -0.38972583
-100.07479 -13.12345 169.5506 -0.826684 0.41853786 -0.37605804
-96.622719 -17.33592 161.45128 -0.91232985 -0.0013151244 -0.40945408
-97.9673 -14.637766 164.00514 -0.87560076 0.078293547 -0.47664818
-102.05042 -13.695856 172.34274 -0.85341489 0.17893809 -0.48955509
-100.51684 -14.484086 169.00801 -0.88516098 0.18075444 -0.42873982
-104.22407 -14.273928 175.2932 -0.86296314 0.17532937 -0.4738715
-100.12939 -17.071499 167.49223 -0.88708413 0.11738586 -0.44643295
-103.48322 -15.334582 173.9809 -0.83407217 0.14765076 -0.53152871
-1.797965 9.1851549 101.22945 -0.045872647 0.6211881 0.78231776
20.054356 28.308012 43.959393 0.011395053 0.99984306 -0.013561753
24.560833 28.247606 40.066402 -0.0024292124 0.99999082 0.0035202799
21.706347 28.366854 46.459507 0.019324955 0.99981278 -0.00093475851
30.918228 28.334867 43.827423 -0.019568074 0.99980199 0.0035929764
23.317516 28.324772 52.13842 0.0091987178 0.99995762 0.00025492918
28.006561 28.318562 52.534004 0.0077614291 0.99996984 -0.00035485346
27.720409 28.165527 48.320351 0.022835484 0.99962962 -0.014803018
28.672178 28.208809 56.350834 6.6691638e-05 0.99996471 0.0083975596
34.247124 28.230732 53.317142 0.003879616 0.99998713 -0.0032677883
58.395985 28.391045 36.438423 0.0017745302 0.99998164 -0.0057885707
56.789211 28.503143 26.449844 -0.0037772788 0.99997628 -0.0057640313
33.33894 28.209379 57.407852 0.00071173033 0.99996686 0.0081084622
61.314751 28.403423 32.560162 0.0051248972 0.99991578 0.011925667
56.443439 28.540791 29.688459 0.02383705 0.99968857 0.0073847389
64.547478 28.447781 36.280602 0.031481627 0.99927223 0.021537447
-100.87495 5.1039376 -33.135262 -0.76233453 0.61349458 -0.2060836
62.288898 19.142813 71.896027 0.42072591 0.73921341 0.5258832
-53.609901 -4.2635159 129.77856 0.81541657 0.14851733 0.55949819
31.739216 12.447338 94.51004 0.20000459 0.65586537 0.72790027
80.687637 17.523586 55.731937 0.56136072 0.70752156 0.42928705
34.045048 13.880694 92.558205 0.23192775 0.67535955 0.70007068
-60.971348 -5.6080899 140.82155 0.82369012 0.15610178 0.54513019
40.207977 12.454767 91.690109 0.27308533 0.66581124 0.69434839
35.476521 10.739858 94.961754 0.24136363 0.63743967 0.73172003
66.529091 16.24383 72.263702 0.46589538 0.68451536 0.56069624
71.242928 10.872012 74.522591 0.49660337 0.64381528 0.58214003
77.189705 13.110603 66.132896 0.55048215 0.65441191 0.51837677
81.317482 8.8436689 66.91629 0.57784295 0.62552464 0.52422935
62.644283 9.1402235 83.005585 0.44925365 0.62315983 0.64018989
85.416649 6.4523993 64.996574 0.60462046 0.61402208 0.50735688
70.335098 6.4609561 79.886238 0.49194902 0.6115849 0.61963701
89.64843 8.8506374 56.372894 0.63435864 0.63533092 0.4403905
88.63726 5.5219278 62.176659 0.63449723 0.61211258 0.47194427
-88.51403 -16.44854 194.84898 0.88172197 0.2115275 0.42169014
-81.402138 -19.740572 182.00745 0.91367924 0.0001839935 0.40643603
-81.721741 -16.93117 180.05272 0.87440276 0.22168894 0.4315947
62.653179 4.3908024 87.454628 0.43363485 0.59898847 0.67318171
-92.235397 -19.336039 203.17798 0.88974446 0.24443108 0.38549721
-91.426781 -16.329554 200.66853 0.88947499 0.14036971 0.4348914
79.654808 -0.58231461 78.667496 0.56935972 0.54354656 0.61675495
80.194138 3.2443895 74.339729 0.56788635 0.59742981 0.56620032
-95.043022 -18.718662 208.90359 0.88763243 0.17034301 0.42789254
-94.973534 -21.103825 209.59724 0.89274222 0.011812829 0.45041284
83.893265 -0.64321446 74.4618 0.60411489 0.55094802 0.57576156
84.489883 -6.287148 78.804306 0.61302698 0.50234306 0.60979462
88.964622 -4.0216026 72.190163 0.6364454 0.51599306 0.57331353
78.994949 -6.2549462 83.756599 0.56834006 0.50591809 0.64887321
92.029938 -10.903069 74.577179 0.65519673 0.49685901 0.56907666
-103.06522 -14.20694 223.53581 0.85324883 0.28686684 0.43551543
-105.53236 -12.83221 227.50841 0.85575593 0.26179084 0.44625923
-101.4669 -15.945868 221.49825 0.91119748 0.11528757 0.39550969
-100.04311 -19.390266 219.05905 0.91541779 0.039806183 0.40053186
-103.83818 -16.353022 226.41269 0.84667009 0.23152564 0.47910917
-102.1166 -18.20252 224.37657 0.90743202 0.10223774 0.40757164
-102.20033 -20.456224 223.15608 0.9042334 0.088771574 0.41770992
-100.71531 -19.164658 221.13754 0.88714695 0.15083744 0.43614024
-100.50504 -20.920467 219.41916 0.91336238 0.33088267 0.23724657
-99.745964 -21.248711 220.507 0.76348412 0.57083547 0.30205765
-103.65739 -19.573996 227.02571 0.87770265 0.20068929 0.43515751
-101.94614 -21.092594 225.5107 0.77140558 0.34999838 0.53144574
-104.01578 -21.465412 229.08472 0.90965116 0.22615266 0.34841022
-102.71503 -22.986383 227.04082 0.89296424 0.049351111 0.44741395
-102.88878 -22.586956 226.05527 0.68930393 0.26494429 0.67428821
-122.69554 -17.771524 230.6949 -0.46274623 0.30447048 0.83256447
-118.53865 -17.096857 232.57848 -0.38572368 0.26342332 0.88420892
-122.77161 -19.185465 230.54016 -0.26723194 0.22653471 0.93662643
-120.77747 -19.316725 231.98051 -0.45093846 0.14223662 0.88114882
-117.27126 -19.038963 233.50934 -0.34325302 0.24838373 0.90580505
-122.3287 -10.072442 227.24144 -0.44416943 0.42951187 0.78627801
-124.76141 -12.694664 227.27028 -0.53257823 0.3334749 0.77791709
-16.0543 28.262981 44.879353 -0.0072085867 0.9998998 0.012176156
-112.23486 -9.9874907 232.45566 -0.23779131 0.34900212 0.90645069
-121.91328 -14.284624 229.5136 -0.4816654 0.37230423 0.79333979
-115.09995 -10.273561 231.65152 -0.36652693 0.39104658 0.84423959
-20.071707 28.248016 52.164288 0.049479857 0.99793428 0.040974218
-9.1281681 27.867853 56.773308 0.013825215 0.9999038 0.0011381767
-117.7139 -13.510726 231.52603 -0.4573679 0.3556706 0.815054
-6.3996906 28.295036 57.301277 -0.01431508 0.99988145 0.0056756129
-105.1212 -19.443352 230.49847 0.88965577 0.23052654 0.39417019
-106.83747 -17.239948 232.9157 0.83755738 0.24372272 0.48897541
-105.75139 -20.51186 232.28159 0.8807615 0.19823791 0.43007076
-110.84069 -15.148952 233.82878 -0.06245834 0.27287778 0.96001905
-107.05048 -14.355126 231.92604 0.81331551 0.27760765 0.51132369
-114.69049 -15.880351 233.42673 -0.22843467 0.25900683 0.9384737
-108.3412 -17.905947 234.65318 0.12428548 0.33755949 0.93306309
-114.216 -18.461882 234.51219 -0.15419169 0.2961162 0.94262409
-105.62956 -15.47998 229.15771 0.8800776 0.2310749 0.41481045
-116.16987 -13.767108 232.5553 -0.30510837 0.28540248 0.90854514
-109.4082 -10.627195 233.06924 0.41579503 0.26954901 0.8685953
-111.90421 -11.995148 233.02992 -0.15066966 0.22817637 0.96189094
5.8825464 5.060082 104.44442 0.018096535 0.60523909 0.795838
8.3385429 -0.75463974 108.60005 0.040725801 0.56360126 0.82504243
-13.220875 -0.1713112 107.29257 -0.11699402 0.55153483 0.82590663
7.9463654 28.365721 42.275253 -0.033166293 0.9994415 -0.0040754233
11.509709 28.273422 44.984108 -0.0076741031 0.99972236 0.022276631
14.983376 28.297915 48.486294 -0.026485361 0.9992699 0.027533928
15.538774 28.188002 53.009533 -0.026778143 0.99949908 0.016866293
3.0505149 -0.59018123 108.74862 -0.016597183 0.56443977 0.82530737
-7.2579989 6.1385765 102.93034 -0.093632348 0.59716684 0.79663336
13.007916 28.297663 56.533047 0.043473076 0.99887115 0.019144382
30.480976 0.096783467 104.78963 0.19126572 0.570732 0.79855019
16.038458 28.224327 56.530731 -0.0095166862 0.99989146 0.011251601
19.733183 28.296808 52.045677 -0.016075343 0.99978352 0.013216531
16.521606 28.093637 59.199314 0.025822433 0.99963588 0.0078375302
22.365133 28.247412 55.140259 6.2369843e-05 0.99974358 0.022642892
11.931798 28.356878 58.940189 0.028175311 0.99895644 0.035947513
-92.92997 -15.691188 203.13593 0.89443511 0.17519315 0.41145247
12.041808 28.0434 65.132141 -0.014582722 0.99989367 0.00019023384
14.948696 28.113102 62.783031 -0.0071380138 0.99986666 0.014688596
19.923182 28.219582 63.461735 0.0005088583 0.99994022 0.010920519
39.639267 28.246063 51.500904 0.0031600089 0.99998087 -0.0053116945
38.428635 28.269815 55.252277 -0.00030503966 0.99999171 0.0040519219
16.397177 28.170601 68.103447 -0.00084058294 0.99709171 0.076206557
44.15728 28.212164 55.717224 0.047326986 0.99671608 0.065705009
78.396957 27.905714 30.920898 0.10568772 0.99244457 0.062320709
18.843777 28.043116 68.781456 0.039548222 0.99462849 0.095655389
22.167929 27.983765 68.441483 0.018492153 0.99525386 0.095539428
60.05975 28.043503 44.9678 0.030802008 0.99835658 0.048325028
16.38155 -2.038723 108.96136 0.097235516 0.5560739 0.82542533
13.559388 16.382177 94.567383 0.076362573 0.69251364 0.71735173
45.123207 15.85018 86.205025 0.29985908 0.69321793 0.65538806
52.410168 17.516827 80.628738 0.34872213 0.71244097 0.60895044
61.525085 17.69619 74.388542 0.42014867 0.70342892 0.57329118
49.182728 14.573114 85.602776 0.33652529 0.67941302 0.65203422
65.102165 12.509813 77.729889 0.46495771 0.64850736 0.60270441
71.730713 13.650774 70.817772 0.51548582 0.65877455 0.54798752
53.35302 13.376828 84.39814 0.36906496 0.65225738 0.66208106
77.515442 10.036398 69.51918 0.54665512 0.63564384 0.54509181
-49.026184 -4.1842203 121.41388 0.79189491 0.48854589 0.36636776
55.338299 10.876242 85.857948 0.37803504 0.64808458 0.66111726
39.243324 9.9309378 94.256554 0.27763784 0.63386023 0.72189921
44.434101 9.3457947 92.740776 0.31159392 0.62721902 0.71379656
49.394604 11.113339 88.819954 0.34579715 0.64051116 0.68568927
57.033184 8.0552969 87.551125 0.40559891 0.62716919 0.66494244
-38.786659 -3.581079 105.12657 -0.27696645 0.84230578 0.46239647
-57.143826 -2.0014324 134.63795 0.81573069 0.11848582 0.56616646
52.390785 1.6245524 95.496017 0.35173717 0.56914169 0.74320835
-59.248802 -3.2096295 137.98061 0.83133101 0.10899037 0.54498619
57.473083 4.9810586 90.034393 0.4094429 0.60050195 0.68684345
-57.403641 -5.887146 135.76971 0.80940408 0.14838788 0.56819546
76.002892 5.193996 76.236031 0.53265935 0.60233635 0.59452909
44.928646 4.5245318 96.642708 0.31318173 0.60328817 0.73345798
-64.029961 -5.6829996 145.75363 0.83359385 0.17390649 0.524288
-65.483597 -6.4992833 148.45932 0.84528148 0.12496695 0.51950216
64.884438 -1.6698021 91.07338 0.45232892 0.53777903 0.71147186
59.206009 -0.3152909 93.461464 0.42521849 0.55118126 0.71790552
-70.413208 -9.2067623 157.3118 0.86706215 0.12850954 0.48134038
75.467888 -0.23999958 82.00576 0.54267246 0.55344856 0.63182378
-102.37896 4.2771873 -29.239056 -0.78305936 0.59592432 -0.178023
55.967613 -0.32412663 95.297256 0.37897637 0.55034661 0.74397284
38.370979 -3.0550387 104.69694 0.26302966 0.52758646 0.80775487
57.851391 -3.9086995 96.815834 0.42235398 0.51001692 0.74933308
-71.473358 -12.745498 160.40894 0.85406667 0.18867393 0.48473945
-98.727119 -0.91666716 -51.100719 -0.76133651 0.54736716 -0.34749958
-98.730255 2.9966757 -44.110134 -0.74677593 0.59509498 -0.2969642
89.605301 -9.9941349 76.401085 0.63818812 0.48160449 0.60064381
-95.719139 3.025553 -51.0228 -0.73347443 0.58975095 -0.33794829
81.107147 -10.849851 85.453087 0.564565 0.50154829 0.65552706
-66.565033 -8.8371696 -97.836716 -0.51866168 0.50367928 -0.69086701
-88.745552 -1.1306692 -68.669456 -0.68442351 0.5418576 -0.48780611
-104.45288 1.335963 -29.831993 -0.80149746 0.56661427 -0.1911809
-90.461403 -15.13759 197.53181 0.8716414 0.23245926 0.43151355
-93.707413 -17.014782 205.91805 0.89561528 0.14305475 0.42119884
-97.658035 -19.013983 214.95312 0.90463984 -0.033228487 0.4248797
-99.391251 -17.477539 217.30009 0.86730313 0.056650247 0.49454618
-98.816658 -21.182117 216.64174 0.84970224 0.17075329 0.49884808
-96.97876 -21.349834 212.30432 0.8903234 -0.19201589 0.41286105
-97.414871 -21.561255 214.85866 0.87733728 0.051028483 0.47715342
5.4415107 -6.0326462 112.09228 0.0080848979 0.50180328 0.86494398
-12.761655 -6.8049297 111.34143 -0.11535221 0.48791328 0.8652367
27.213343 28.237476 44.774364 0.0038778349 0.99999231 -0.00063597033
33.510689 -5.3637624 107.61889 0.22477245 0.50062275 0.83597505
10.214938 -7.9395118 112.73104 0.047255501 0.49899894 0.86531323
31.126982 20.164711 86.708061 0.20028244 0.74758846 0.6332444
40.32029 16.920584 87.187218 0.26497471 0.70793968 0.65468293
23.163734 18.324913 90.993446 0.13634446 0.72215331 0.67816269
31.940908 17.163967 89.96254 0.21717802 0.71724617 0.66211152
36.026554 17.583599 88.120743 0.23837039 0.71218807 0.66027844
45.596783 12.533911 89.320541 0.3102192 0.65729624 0.68682289
5.0406413 9.3214922 101.04059 -0.006340724 0.63070202 0.77599919
40.024372 7.4785337 96.130081 0.27000302 0.61416167 0.74155504
27.35881 8.4030981 99.263756 0.18004775 0.615583 0.76722896
32.861546 7.2767816 98.670914 0.22139025 0.61481345 0.75696146
28.055635 3.5712676 102.79205 0.17582832 0.59603012 0.78347462
60.187 2.466965 90.578041 0.42256474 0.57971758 0.69668263
42.031685 1.6498539 100.05682 0.29901847 0.58503991 0.75386745
48.574448 1.9275866 97.076363 0.33325753 0.58255833 0.74132663
35.034168 1.2256343 102.71479 0.22573097 0.58215463 0.78111559
110.15601 -4.7619286 38.150604 0.79923302 0.50993705 0.31810489
38.260914 2.609937 100.68111 0.25536796 0.587147 0.76814425
-6.1047583 -6.1915369 111.54272 -0.054342199 0.49777499 0.86560214
21.656424 -2.9137547 108.66511 0.14089179 0.53610176 0.83231264
-1.2497257 -3.4478588 110.18603 -0.05252476 0.52374291 0.85025549
23.680536 -0.45434031 106.75899 0.15791401 0.55788887 0.81475347
29.686081 -4.5918331 108.12148 0.18131699 0.51529425 0.83761322
43.177929 -8.444562 106.30818 0.29370245 0.49364084 0.81857044
-4.6141419 -11.357863 114.53789 -0.069004536 0.4777914 0.87575889
1.2414643 -10.147657 114.1292 -0.03848765 0.48361731 0.87443298
61.693008 27.9149 49.67918 0.023474338 0.99916208 0.033526812
-15.000694 28.10512 59.696217 0.0048332335 0.99997669 0.0048308871
-9.4118614 28.02508 59.641567 -0.022183534 0.99974519 -0.0041665668
7.7148137 15.840483 95.360031 0.035627253 0.70025533 0.71300292
29.146227 17.491068 90.477783 0.18414205 0.71107721 0.67857283
8.2428551 12.699648 98.387856 0.02124662 0.65626067 0.75423497
-60.629364 -3.8648083 141.00139 0.90498942 -0.21538246 0.36688504
52.957806 15.133144 82.959717 0.37215367 0.67117131 0.6411168
92.254021 -3.3772485 67.602692 0.66188037 0.52241254 0.53758675
33.902924 28.40839 37.3806 -0.0083927372 0.99992961 0.0083886962
35.622784 28.490391 32.808853 0.00058371248 0.99996293 0.0085908743
35.266655 28.402269 41.793499 -0.0021214783 0.99999774 -0.0001546852
40.169796 28.435555 38.882751 0.00066097645 0.99994451 0.010512046
45.826767 28.403084 37.188065 0.0094051836 0.99995303 0.0023299707
42.179783 28.346025 42.333344 0.00069994206 0.99999797 -0.001891069
54.018208 28.424599 16.888607 -0.039793588 0.99866754 0.032858133
31.614414 28.228588 63.313469 0.017009016 0.99945462 0.028307416
41.123699 28.438883 46.920914 0.0007727897 0.99996358 -0.0085036382
47.462929 28.38616 44.051868 -0.021597184 0.99966282 0.014416951
58.916389 28.42732 22.737938 -0.02776603 0.99950737 0.014633744
50.642849 28.316423 38.210846 -0.00087930931 0.99988472 -0.015164442
46.260303 28.465998 46.400173 -0.0078069954 0.99996758 -0.0019727179
45.598392 28.379404 50.840595 -0.0060403598 0.99992317 0.010825982
54.832108 28.325808 35.296425 0.0070078238 0.99995029 -0.0070860283
46.160122 28.513809 53.47118 0.046487406 0.99012077 0.13228671
51.676056 28.265116 46.2593 0.031298131 0.99831516 0.048859816
52.347656 28.644587 42.818897 -0.0044524432 0.99993926 0.010083484
54.970566 28.482065 42.025024 0.020197479 0.99911648 0.036855418
51.020027 28.507154 49.411663 0.04433918 0.99835593 0.036325131
58.197342 28.062611 47.8395 0.031963903 0.99842876 0.04602417
52.755577 27.919123 52.631535 0.045293491 0.99707693 0.061531749
55.471493 28.103811 49.792618 0.051374298 0.99768794 0.044492781
67.604866 28.514246 25.283188 0.030221587 0.99906969 0.030762248
68.940979 28.406073 27.526144 0.03214065 0.99926329 0.020972833
-50.669167 -3.8848186 121.05106 0.50834173 0.65920049 0.55411482
-42.623699 -1.541411 107.81654 0.73400348 0.4429943 0.51477665
68.052689 28.397747 32.26302 0.033323988 0.99917454 0.023232972
-49.479183 -1.3577231 118.96781 0.56180555 0.66482943 0.49231738
-40.694996 -2.005368 106.80944 0.48835909 0.53693759 0.68789774
74.114471 28.102839 30.019867 0.045355245 0.99875283 0.020872293
-78.508362 -11.354282 121.37399 -0.89822048 0.38927138 -0.20412678
-106.57919 -0.49459606 -26.664326 -0.81758654 0.54544389 -0.18450768
-55.360619 -6.2272048 133.30667 0.81296057 0.15803373 0.56046456
-72.528145 -9.5643196 160.95764 0.84324068 0.19306381 0.50166869
-67.988541 -7.5564647 152.71989 0.85175794 0.11338554 0.51151943
-55.699825 -9.1286583 134.62399 0.74513811 0.3571901 0.56319124
-52.021347 -8.7997093 129.22131 0.78804213 0.13097593 0.60152715
-53.531334 -9.306015 131.00188 0.84821677 0.23836677 0.47297937
-69.047089 -11.842801 155.45392 0.82386619 0.20901424 0.52683723
-84.710754 -14.090993 184.30522 0.69675106 0.53587008 0.47684515
-86.737923 -15.273037 189.67467 0.87565142 0.248826 0.41390827
-82.886147 -14.195786 181.75693 0.88419503 0.18573973 0.42860228
-84.555069 -15.963331 186.18184 0.87028319 0.21795906 0.4417024
-88.540512 -21.939173 198.31581 0.9110173 0.050934013 0.40921047
-93.401672 -20.552277 206.19453 0.86561179 0.21878567 0.45038757
76.883743 20.346203 55.685986 0.52117336 0.74595338 0.41464671
74.837677 18.067358 61.815182 0.51017928 0.72175211 0.46775106
75.829681 15.533665 64.378494 0.53292745 0.68526757 0.4963837
88.300171 12.520317 52.81871 0.63538051 0.65448797 0.40980124
53.300491 7.076776 90.586029 0.36587292 0.62833536 0.68653601
94.907722 15.245406 35.179153 0.68004489 0.6784972 0.27781373
74.808319 8.8205795 73.471046 0.52737761 0.63162684 0.56826085
84.613632 10.928805 60.350613 0.59923786 0.64042759 0.48038155
54.880344 3.9197028 92.54911 0.37800333 0.58981991 0.71360058
100.80799 7.5877924 38.366264 0.72283757 0.62078893 0.30352411
67.242661 1.912892 86.455315 0.47693905 0.59370238 0.64810991
99.410332 7.212316 42.194363 0.69539225 0.62518722 0.3543593
96.169434 6.3195691 49.836414 0.6887098 0.60845256 0.39428946
53.029663 -4.3013706 99.569839 0.37205258 0.51592797 0.77161855
92.779968 6.9741364 54.428047 0.65843171 0.61223471 0.4377628
83.806053 4.0392566 69.722176 0.59369248 0.59559464 0.54110658
95.797737 1.4960778 57.336018 0.69167531 0.56976628 0.4437924
64.156342 -4.3997412 93.392189 0.43969744 0.51001656 0.73928964
66.270294 -0.43379477 89.203812 0.47225338 0.55853349 0.6819216
100.46487 3.2581673 46.829613 0.7183854 0.5872072 0.37297475
88.844826 3.1683908 64.861267 0.6367057 0.580984 0.50701427
99.912193 0.9397921 51.143372 0.71288204 0.56834042 0.41083845
87.864799 1.1563678 68.269272 0.62243009 0.56854594 0.53789991
93.225273 -1.386634 64.390343 0.67735213 0.5463075 0.49268878
97.929993 -5.6781425 62.285805 0.70833385 0.51246625 0.4854292
97.938408 -3.3440709 59.624191 0.70550865 0.5348736 0.46493852
103.88081 -1.7417014 47.661915 0.74763471 0.53569734 0.39251831
58.218719 19.237417 74.754738 0.38578513 0.73807192 0.55355191
73.571808 3.9526503 79.616058 0.51645505 0.59145838 0.61923438
72.474205 28.329529 24.05477 0.064352237 0.99737531 0.03318397
77.45089 7.1349077 72.839355 0.55522078 0.61511117 0.55979288
50.536575 6.0031424 92.822975 0.33408242 0.61027813 0.71829623
60.360336 28.321178 42.135223 0.046390612 0.99793869 0.044344183
105.44566 -11.308805 56.322853 0.82400143 0.32950205 0.46092308
114.64748 -6.990211 28.736588 0.83861053 0.49321964 0.23122881
111.44915 -8.2900648 40.079594 0.80361646 0.50089037 0.32141778
100.8318 -9.1843395 61.412373 0.73206097 0.47952577 0.48388207
-41.944038 0.97068125 105.37322 0.66686475 0.57787824 0.47047666
-96.465416 -16.619951 210.68523 0.87300062 0.22380607 0.4333367
47.340191 28.495375 26.963055 0.0086071538 0.99991459 0.0098387543
44.00909 28.510426 22.081089 -0.0013796742 0.99999094 0.0040243184
41.954243 28.510071 27.082094 0.0027551805 0.99999541 0.0012030065
-96.526077 -19.462021 212.86046 0.894063 0.01210008 0.44777787
47.457821 28.524338 31.219448 0.042401135 0.99909776 -0.0024234399
-90.03582 -19.088108 198.80032 0.85649484 0.207812 0.47247297
-87.691391 -19.765886 194.50916 0.90439647 0.1714513 0.39073184
-86.151985 -18.566418 190.41493 0.87779313 0.21539351 0.42788422
48.777981 28.451019 33.832855 0.021361757 0.99971503 0.010654796
51.671444 28.343616 30.437159 0.025035486 0.9996593 0.0073782168
42.788509 28.219414 58.948524 0.047768854 0.99640906 0.069907002
52.729683 28.5376 23.935743 0.006576723 0.99993193 0.0096369954
-91.198982 -20.83559 201.07933 0.90693676 0.16808696 0.38628039
-87.338501 -20.184185 192.38351 0.8352266 0.053411219 0.54730588
55.851982 28.403091 22.635824 0.0037799573 0.99988741 -0.014520466
49.663677 28.370361 53.812336 0.066256605 0.99540991 0.06905967
45.461487 27.754021 59.461456 0.033495028 0.99864012 0.039948717
47.604736 27.769968 61.813789 0.00062297803 0.99994612 0.010362203
53.840073 28.493633 38.505505 -0.034609899 0.99932963 -0.011933586
60.755325 28.623625 25.667797 -0.012161345 0.99967867 0.022240525
50.926083 27.831369 55.566544 0.038154431 0.99514061 0.090771273
112.11541 -10.666116 42.540497 0.79536074 0.51131266 0.32551572
77.569511 28.571568 -24.146664 0.01768906 0.99972355 0.015489397
88.792267 25.747126 16.843641 0.55103242 0.82311416 0.13728224
87.347855 25.074673 24.828844 0.54883373 0.81492913 0.1862044
89.673004 24.261292 21.110065 0.58308065 0.79440451 0.17011309
86.427742 21.993546 37.277359 0.57918209 0.76307976 0.28680548
61.700356 14.816583 77.662132 0.42702758 0.67836261 0.59788936
70.956879 16.747463 67.668434 0.50075263 0.69224715 0.51965451
84.514122 22.106422 40.685234 0.57008541 0.75437564 0.3254537
91.794037 20.614151 28.655554 0.62212467 0.74904996 0.22778302
59.994579 12.653852 81.178482 0.41617003 0.65007895 0.63576716
89.801315 17.640322 41.174084 0.62581694 0.70837039 0.32644242
92.782776 18.973652 31.01918 0.6502586 0.71601129 0.25395182
94.862831 18.751955 25.705107 0.66088641 0.71706575 0.22146319
80.307777 15.234237 59.718163 0.56722796 0.67383659 0.4734942
96.038658 18.780655 22.129683 0.6649729 0.72230399 0.18996842
84.27845 14.329943 55.889011 0.60682201 0.66476816 0.43571821
97.745094 15.940772 25.791435 0.69368154 0.68610477 0.21924019
102.78703 13.591308 13.957503 0.72246623 0.68045676 0.12256014
99.790123 14.75065 22.906359 0.70995134 0.67787707 0.19092375
93.235016 13.156386 43.529457 0.66815853 0.65589869 0.35122809
104.91515 9.3380566 21.748463 0.7604906 0.62162125 0.18772587
97.277077 10.577687 40.257515 0.69201255 0.64475048 0.32467768
69.981827 -1.8303876 87.602997 0.49059668 0.54867905 0.67695355
103.27819 9.3389864 27.643156 0.74383783 0.62708843 0.23122594
72.068634 -1.1877096 85.61274 0.50780547 0.56458092 0.65067816
107.98798 7.524076 14.705527 0.77545738 0.61472636 0.14414316
101.29694 4.5319123 42.831226 0.72830665 0.59518272 0.33959827
108.23378 3.4451876 26.649042 0.77074796 0.59984815 0.21477857
109.28957 4.5159287 19.503519 0.78532374 0.59333348 0.17669722
75.517906 -5.5883775 86.281906 0.5477317 0.50862169 0.66429967
105.11936 3.6873817 35.447819 0.75578487 0.58980268 0.28446785
107.03345 3.3560185 30.980827 0.76438898 0.59374946 0.25133842
110.45753 -0.46288481 29.036489 0.78899407 0.56883979 0.23218475
92.359032 -7.8835254 71.561928 0.66720515 0.49310306 0.55828905
110.19666 -1.4082668 32.091652 0.79247659 0.54493684 0.27390635
101.60927 -3.5371315 54.119781 0.74276793 0.51689476 0.42557666
48.967873 28.407667 40.439835 -0.0094212564 0.99994004 -0.0055743004
84.288979 26.48563 27.24449 0.46493319 0.86707085 0.17895591
56.994339 13.252733 82.459213 0.39515978 0.6642043 0.63457185
92.902878 10.270105 49.052319 0.66488147 0.64051998 0.38427442
73.444977 28.618412 4.8697438 0.027847018 0.99959648 0.0056130742
116.97161 -3.7821634 -13.689533 0.85918683 0.50680548 -0.070329361
116.11191 -3.8641322 -21.418701 0.85289222 0.50319129 -0.13918872
118.38174 -6.9483924 -16.338938 0.85833901 0.50351799 -0.098609522
118.51171 -8.5801735 15.94843 0.87049413 0.47138718 0.1415417
120.43811 -9.1984968 -0.27553457 0.86541212 0.4999699 0.033043802
119.35239 -7.9257002 -12.999088 0.8590585 0.50716043 -0.069330424
-102.87996 1.4429334 -35.850212 -0.78493971 0.57465541 -0.2316049
-45.333492 0.20491984 111.67332 0.59904879 0.64907748 0.46886984
-48.032169 -0.33790985 115.61063 0.54143107 0.71392822 0.44402587
-44.295517 1.253835 109.16158 0.59967136 0.67572421 0.42870867
-45.278706 -1.3903328 113.46733 0.71207452 0.52335167 0.46803087
-42.507599 -2.6138694 110.29572 0.77339238 0.48081365 0.41313747
-44.708176 -7.4640861 116.31136 0.83606458 0.036302794 0.54742855
-45.819683 -3.4004951 116.28602 0.79189277 0.35057417 0.50000364
-46.281395 -7.8194766 118.66036 0.89834762 -0.11736445 0.42331693
-43.561008 -4.1017046 113.25021 0.81436622 0.29338634 0.50073153
67.538094 27.817688 46.945683 0.055102292 0.99731237 0.048288219
56.010632 28.616833 16.331654 -0.012430483 0.99954391 0.027520243
58.48637 28.719065 12.800411 0.047815446 0.99693149 0.061977565
59.11245 28.926094 8.9640331 0.052265916 0.9969002 0.058807671
61.401791 28.589485 12.635509 0.010347951 0.99982297 0.015714675
66.531326 28.619946 20.971754 0.012874574 0.99991131 0.0034279218
62.128986 28.935167 -20.8405 0.045863271 0.99878001 -0.018309155
64.775902 28.271967 27.225294 0.013156743 0.99984515 0.011683849
61.902023 28.591396 22.306555 -0.022277696 0.99973351 -0.0060526268
63.224751 28.741915 24.909861 0.031814616 0.9992339 0.022790441
68.684525 28.666307 11.2324 -0.0099828169 0.999834 0.015246477
64.495865 28.672895 8.2420673 0.0069449134 0.99936265 0.035014421
65.924606 28.089632 38.719368 0.051883686 0.99642849 0.066621222
62.40773 28.649843 17.249783 -0.00743159 0.9999519 0.0064042495
107.15344 -2.934114 -49.728355 0.78140277 0.51170486 -0.35716632
66.573563 28.738916 -20.412773 0.0084409593 0.99962288 -0.026130671
72.152863 28.519053 20.831303 0.048903503 0.99876058 0.0092582107
67.647163 28.620922 15.85264 0.013541496 0.9998436 0.011372592
69.720551 28.837837 7.8280363 0.010043608 0.99965727 0.024172984
74.019234 28.285206 18.092548 0.028394159 0.99924922 0.026358923
120.82321 -9.9818201 -9.7582893 0.85958171 0.50859088 -0.049545072
85.76767 27.565756 -24.33062 0.39144951 0.91597193 -0.088106029
85.150002 24.327728 33.024807 0.55145979 0.79962742 0.23767205
88.055962 22.060524 33.341541 0.59911722 0.76043183 0.2506032
88.8787 23.136337 27.922581 0.5854423 0.78085232 0.21800685
91.310806 22.642097 22.434559 0.61916941 0.76296973 0.18575911
92.743477 24.63632 -5.3057513 0.59517151 0.80349612 -0.012838418
92.803146 21.002169 24.062943 0.62729681 0.75459379 0.19258006
89.080147 15.959475 45.845833 0.63688934 0.6734876 0.37521502
90.979866 18.585455 36.663425 0.6354214 0.72105479 0.27626005
95.945038 20.901749 11.265587 0.65113878 0.75273687 0.096981794
98.515465 19.667168 -0.81523108 0.69076991 0.72268009 0.023881549
98.829399 18.504759 9.6019335 0.69954145 0.70864284 0.092016779
101.08858 16.644135 6.2126656 0.71649122 0.69326872 0.077580966
97.491043 20.486109 -10.324597 0.67096204 0.73988473 -0.048790921
94.205849 14.900185 38.015617 0.67530954 0.67095464 0.30623022
97.593498 18.226786 18.250021 0.6950804 0.70167863 0.15655763
98.115715 18.669176 13.369247 0.6980536 0.70507216 0.12487798
102.28502 13.33068 18.059986 0.72845334 0.66774535 0.15320531
102.90242 15.089083 1.0615155 0.73620456 0.6756869 0.03807997
98.97364 17.634661 -21.634266 0.71206033 0.68987256 -0.13055974
100.4987 12.924908 26.073601 0.71492773 0.66029179 0.22998498
98.330811 12.919937 32.664051 0.70546132 0.65427899 0.27247632
104.00707 13.257695 9.0807285 0.73871702 0.66607517 0.10315532
92.257393 2.3659191 61.184425 0.65350878 0.59389436 0.46927142
102.59371 11.733187 22.913055 0.73149413 0.65237761 0.19829194
107.98315 9.1252012 0.96230489 0.77219886 0.63466406 0.030172937
104.51123 13.257465 -9.6677256 0.75668281 0.65306139 -0.030690288
29.25996 -9.7763672 111.19502 0.19651099 0.51129389 0.83663732
105.43996 10.468325 14.855896 0.74809736 0.64832735 0.14149886
102.65572 7.8610539 33.195709 0.73590738 0.62050873 0.27094132
77.15377 -9.7747498 87.894447 0.55610585 0.47379282 0.68283719
107.23483 9.2916775 9.8497763 0.77822232 0.62007731 0.099368691
108.3984 8.7525024 -8.8907185 0.77772993 0.62599868 -0.057112381
109.79833 7.079196 -3.5873976 0.77967227 0.62618601 0.0014802306
111.53312 3.0978971 13.104979 0.80378109 0.58188683 0.12386952
110.10141 5.7347808 -15.783628 0.79053104 0.60544074 -0.092207089
111.94079 3.6390796 6.9714551 0.79761177 0.59807479 0.078243703
114.18993 -0.48385116 -20.033724 0.80976903 0.57241833 -0.12888531
107.18428 -0.91929287 39.434792 0.77487999 0.55242389 0.30722776
100.63078 -6.5176134 59.20726 0.73371804 0.49884772 0.461312
111.27714 0.49779901 23.79891 0.79974782 0.56565434 0.20109369
115.07835 -4.5842628 21.754452 0.8355962 0.51266021 0.19737898
115.20954 -0.78245151 5.832902 0.82999146 0.55258721 0.075904056
113.06332 -5.9614186 31.981981 0.82086653 0.50249022 0.27144367
117.42571 -4.5202041 6.8504353 0.85312599 0.51805496 0.061603632
117.83226 -4.7414989 0.53458482 0.85803837 0.51252043 0.033060681
62.406094 28.421608 28.938612 0.022830637 0.99969912 0.0089672524
67.808151 28.016142 34.279373 0.062361304 0.99698484 0.046175405
85.591446 19.475071 44.812252 0.5878197 0.73267138 0.34301704
73.525742 -7.4918647 89.264671 0.52600974 0.48092002 0.70144832
112.89274 -5.4545054 -38.336636 0.8239615 0.5038197 -0.25933206
120.65575 -9.30832 -4.3426437 0.86433339 0.50291806 -0.0011080096
103.07874 0.98362845 -52.548634 0.74911195 0.55214769 -0.36601132
116.04885 -6.6222444 -29.371389 0.84196931 0.50007612 -0.20251328
-107.09267 -12.07786 230.18214 0.85585064 0.30205494 0.41986006
118.03741 -9.539609 -28.639547 0.84822118 0.50092614 -0.17202871
64.726952 28.017469 41.351112 0.041134704 0.99883306 0.025305994
70.325859 27.992277 37.947636 0.038092319 0.99891359 0.026846735
73.109184 28.066282 32.954781 0.051370058 0.99773532 0.0434203
74.982544 28.118525 26.384165 0.03589252 0.99916238 0.019652754
75.348427 28.161772 20.596815 0.030412138 0.99902582 0.031978086
74.23822 28.687958 8.7628889 0.058333214 0.99828982 0.0038352166
74.571442 28.448795 15.245222 0.037234731 0.99863958 0.036502432
55.243908 29.101198 -52.297276 0.03595449 0.99929792 -0.010534548
119.60405 -8.2328863 6.929265 0.86376071 0.50267619 0.035128463
57.703434 28.808836 -55.943237 0.027979588 0.99947894 -0.01609287
82.203384 27.030235 30.071793 0.38346785 0.90882576 0.16428052
80.414154 28.394228 18.08815 0.026484722 0.99933398 0.025105996
80.379944 28.075489 24.598324 0.14578082 0.98719126 0.06481798
81.967773 25.733768 35.313015 0.49617758 0.83192813 0.24840167
85.264549 27.047064 21.459808 0.41315645 0.90061188 0.13490698
82.592529 28.075869 20.478294 0.1292481 0.98936903 0.06666147
71.078384 28.808001 -21.681355 0.017113667 0.99983609 -0.0059143193
119.28199 -9.3210554 -20.779684 0.85825408 0.49533468 -0.13432594
6.4229851 -2.2367127 -116.89184 0.029335206 0.53578895 -0.84384221
93.051239 23.485825 10.212305 0.62856662 0.77116191 0.10106122
95.356621 22.485901 -0.73066396 0.62946504 0.77645546 0.029845014
93.926773 23.593914 -6.9687495 0.62510121 0.77995563 -0.030294722
95.991127 21.611408 4.7420297 0.66074067 0.74752533 0.068026379
96.951256 15.440095 29.897673 0.68326068 0.68693352 0.24754238
97.061951 21.064621 -4.6381259 0.66298306 0.74856168 -0.010434332
96.988884 19.188316 -23.713259 0.67923439 0.71837908 -0.15024054
101.42691 16.487391 -12.190214 0.72046119 0.6906653 -0.062586859
98.466896 16.084105 -30.302893 0.7127465 0.67378926 -0.1949368
101.20749 17.136255 -5.925724 0.71527302 0.69873881 -0.0121899
100.60933 15.083243 -25.72056 0.72319829 0.67168725 -0.1606871
104.23 13.848006 -2.4516604 0.76025552 0.64960659 0.0047820471
104.39754 12.959558 -14.30034 0.75491363 0.65027052 -0.085167542
103.19207 11.312883 -28.853615 0.74605769 0.64058667 -0.18178745
100.10316 12.930737 -34.685699 0.72459751 0.65299129 -0.22036506
102.50154 14.358952 -19.16593 0.73821557 0.66446108 -0.11631534
105.26077 10.603732 -22.560202 0.75377238 0.63941944 -0.15155855
104.07437 9.0938692 -32.866985 0.74472356 0.63127726 -0.2165086
96.743118 -6.8950491 65.250893 0.69735658 0.50286573 0.51070517
104.2299 0.71284431 43.136898 0.7553283 0.55335939 0.35110188
96.072899 -7.9756408 66.927826 0.67855674 0.48636174 0.55046618
107.506 8.4216452 -19.692112 0.77116132 0.62761515 -0.10681523
101.76637 7.1629963 -43.908283 0.72560167 0.61981225 -0.29888973
107.13585 -4.4750042 44.940777 0.77987212 0.51771843 0.35180545
108.83694 -7.2677579 45.091389 0.78758997 0.4946993 0.36738917
112.25564 3.762825 -7.7931924 0.79959977 0.59937084 -0.037347049
107.77639 5.7045422 -29.168602 0.76552147 0.61724806 -0.18160902
109.56205 4.8576708 -24.102339 0.784904 0.60445207 -0.13624752
113.01267 -3.2726853 26.774052 0.82694411 0.51389158 0.22820812
109.17485 0.84802592 -37.49247 0.78704339 0.56245559 -0.25338987
113.99041 1.5821052 -4.2137675 0.81374913 0.58119315 -0.0051861792
115.02041 -0.31730956 -9.9395351 0.83254576 0.55180609 -0.048761871
111.10634 1.8739367 -27.660393 0.79557514 0.58032686 -0.17401417
113.41812 -1.2240108 19.471786 0.81234676 0.56009245 0.16244757
115.20711 -2.3142869 13.826753 0.8273114 0.54798448 0.12356681
116.25949 -4.9522715 17.304739 0.84599704 0.50611264 0.16774662
116.56044 -2.3051565 -4.4226241 0.85068524 0.52567399 0.0011869144
114.84978 -3.1743848 -25.882835 0.84150058 0.51309896 -0.16913378
109.70978 -1.993153 -41.812889 0.8032769 0.5258047 -0.27977774
114.99492 -1.0140725 -16.589779 0.8355186 0.54329717 -0.082078278
112.43207 -0.434367 -29.089836 0.81777376 0.5419119 -0.19384921
117.86043 -4.7170539 -7.7767701 0.85971159 0.50875914 -0.045388378
113.31372 -3.4800889 -33.31567 0.82975322 0.5089851 -0.22900572
-59.291119 -0.69709909 128.46051 -0.91593575 -0.30073839 -0.26574069
106.55706 -7.2254868 49.39463 0.7638734 0.49605349 0.41282976
94.882019 -9.2047024 69.636574 0.6759432 0.49442929 0.54648006
63.246857 28.790922 -24.321276 0.0079240883 0.99971777 0.022398632
72.136398 28.740129 13.432691 0.018661231 0.99946666 0.026798846
120.49584 -9.998971 -15.460958 0.83693665 0.54017925 -0.087996438
88.884148 -6.2898006 -81.378136 0.64274794 0.50375724 -0.57715148
114.99727 -9.4322004 -39.356884 0.8249712 0.50271893 -0.25825626
43.404465 28.796631 -11.505917 0.0053595458 0.99998415 -0.001730368
62.414665 28.941557 -18.188608 0.0033297548 0.99998033 -0.0053204009
40.207359 29.189152 -55.882504 -0.0016858614 0.99997878 0.0062955031
77.919312 28.256115 6.0429859 0.053657129 0.99849176 0.01162485
66.906876 28.998539 -15.939533 -0.0049041882 0.9999876 -0.00095311063
76.670723 28.623573 0.92028886 0.059445899 0.99731022 0.042877331
93.403008 -6.2448277 -76.065651 0.66602898 0.51007396 -0.54427004
113.1858 -8.5251341 -43.145809 0.81568009 0.49951422 -0.29180738
38.628117 28.993286 -73.700729 0.016319199 0.99986404 -0.0023922003
111.9761 -8.9757872 -47.190552 0.80411756 0.50153863 -0.3191458
59.120071 28.945269 -49.40704 0.038506262 0.99920213 -0.01059576
53.088032 29.102907 -54.78949 0.034746252 0.99935168 -0.0094265481
45.323517 29.105038 -69.94381 -0.012548656 0.99991822 0.0024432556
72.201309 28.742569 -27.297281 0.026452094 0.99963814 -0.0048883008
52.949528 29.088499 -56.849937 0.079533555 0.9965049 -0.025543125
93.097626 23.865124 6.1804662 0.62609935 0.77706379 0.064586326
94.257385 21.512936 16.662239 0.63033175 0.76298088 0.14332534
-95.632874 -16.017212 158.60098 -0.88107091 0.27155656 -0.38726103
98.808739 19.285131 2.7665637 0.69955707 0.71279162 0.050477937
77.164757 22.413361 -58.987782 0.51420099 0.76599628 -0.38580722
87.741753 21.658146 -42.960812 0.60757101 0.74310642 -0.2804468
84.286827 22.482189 -47.788681 0.58693373 0.74601334 -0.31459942
81.983444 20.938461 -55.149448 0.56175089 0.74054849 -0.36881411
90.207855 21.353199 -38.078888 0.62290984 0.74147695 -0.24938975
92.915199 17.774952 -41.582378 0.63983911 0.71385181 -0.28464252
76.819489 20.398779 -63.270859 0.52258557 0.73530799 -0.4315396
104.42326 2.3250999 40.084976 0.73938382 0.59380341 0.31734687
94.417801 17.847523 -37.558216 0.66268265 0.70930368 -0.2402914
89.539673 16.432659 -51.507812 0.64434606 0.67963243 -0.35059634
100.2354 -9.2406225 -69.708252 0.72119009 0.49424011 -0.48539826
97.651154 15.079562 -36.250656 0.69893646 0.67219734 -0.2442098
88.014969 12.103395 -61.333519 0.62445581 0.64594865 -0.43909591
97.820114 12.109653 -42.925716 0.70686388 0.64546627 -0.28933862
92.853867 12.035608 -53.343201 0.67114383 0.64878368 -0.35867208
101.908 9.3112421 -39.057461 0.72570187 0.63547707 -0.2636773
111.58433 4.5721955 -0.34302667 0.79436022 0.60720563 0.017121576
112.64405 -7.7164574 36.353119 0.81840909 0.49011821 0.29998446
96.667671 7.5995569 -54.005085 0.68950123 0.62093395 -0.37286603
87.344322 8.0965118 -67.833733 0.61502659 0.62323433 -0.48303345
114.34592 0.84090972 0.80300254 0.82412934 0.56530571 0.035217781
104.2533 6.3578954 -39.17487 0.75306284 0.60609055 -0.25602874
105.86683 2.8806541 -42.55249 0.75552607 0.58886045 -0.28709537
113.09843 1.982332 -14.498418 0.80447149 0.58925223 -0.074881732
100.22197 3.939014 -53.182072 0.70920449 0.6032052 -0.36492801
94.902267 3.3618202 -63.213326 0.66992241 0.60035354 -0.43678313
96.339478 4.987618 -58.762657 0.69394195 0.59802264 -0.40101564
102.1058 -0.45485988 -56.521652 0.73287666 0.54964179 -0.4009808
97.728523 0.70665509 -62.489616 0.70941854 0.56036663 -0.42745131
116.64477 -4.1042905 -18.245628 0.86242354 0.49631676 -0.099475071
96.622925 -1.032488 -66.459778 0.69983673 0.54354358 -0.46345317
107.59337 -1.3047587 -46.089973 0.79266196 0.52424091 -0.31122112
57.739849 28.507647 38.965736 0.029774677 0.99913698 0.028962132
76.005737 28.516071 -19.588671 0.047501273 0.99883878 -0.008049666
69.608849 28.905226 -27.910351 0.030544844 0.99948668 0.0096612461
92.699448 15.919921 -46.134804 0.6655075 0.67109388 -0.32669979
95.487114 -6.9199457 -74.079987 0.68689948 0.51304919 -0.5147326
91.31057 -7.949141 -80.028145 0.65659523 0.5021807 -0.56275862
70.444199 27.805048 44.27417 0.0634363 0.99632674 0.05752255
75.389015 27.690073 39.59293 0.1988508 0.97165954 0.12781286
78.543129 26.62044 38.644165 0.40713403 0.88630456 0.22069469
78.345932 27.543125 34.663914 0.24375351 0.96116525 0.12940486
62.766949 29.015776 -27.80748 0.01704604 0.99952829 0.025546592
43.134686 29.101315 -50.361423 -0.0054063615 0.99995142 -0.0082386751
84.367813 28.368013 -11.673839 0.082117081 0.99661928 0.0026039674
45.907661 29.17868 -54.918755 -0.010745522 0.99993485 0.00384203
41.15155 29.240881 -53.240387 0.011278206 0.99993044 0.0034685789
43.797787 29.259699 -59.793598 0.007199801 0.99997228 -0.001857323
87.831261 27.524551 -12.303142 0.31845948 0.94772434 -0.02005084
66.171646 28.982433 -33.765858 0.036971621 0.99920702 -0.014774973
88.758537 27.111294 -9.4880381 0.45619196 0.88974839 -0.015384758
71.663925 28.581013 -33.141846 0.025784353 0.99947989 -0.019370111
68.785164 29.027693 -32.289417 0.042160835 0.99911046 -0.00090424507
69.744766 28.579498 -36.46085 0.049476769 0.99874717 0.0074884188
68.948227 28.862045 -38.419746 0.037332367 0.99927574 0.0073622908
62.516548 29.051502 -37.228104 0.023966962 0.99970174 0.0046865181
66.176384 28.95553 -40.668583 0.052731123 0.99846143 -0.017152727
41.621819 29.225695 -63.715599 0.01233453 0.99901348 -0.04266075
41.060467 29.008102 -70.29158 0.008144795 0.99977261 -0.019707698
40.521214 28.970911 -75.527206 0.098609366 0.98230433 -0.15923083
84.806175 -8.8291912 -87.661278 0.6102708 0.48303226 -0.62789285
85.659767 22.994886 -43.784996 0.56955105 0.77458364 -0.27501246
60.548561 24.004463 -73.701973 0.4051604 0.77284837 -0.48841622
67.302284 23.739328 -67.930931 0.44556895 0.77080107 -0.45533943
106.41769 10.793737 5.9397769 0.76406056 0.64291972 0.05353231
94.557327 19.009531 -33.207592 0.66994154 0.71221453 -0.20959195
71.899483 21.691437 -66.604599 0.48720253 0.74920779 -0.44868851
89.617874 18.188572 -47.443092 0.62356097 0.71822619 -0.30874404
86.762077 19.471766 -50.095722 0.59654248 0.73023367 -0.33301041
64.141197 21.420471 -74.517982 0.43876451 0.73959839 -0.51037228
110.39715 6.0639615 3.1102846 0.79097676 0.6105324 0.040074244
94.86953 15.537424 -42.243782 0.68723327 0.66582942 -0.29048496
80.189926 19.446098 -60.468025 0.55880159 0.71992588 -0.41163987
85.422699 18.307873 -54.869518 0.60458785 0.70480525 -0.37111071
82.363098 15.330409 -64.264862 0.58835012 0.67086875 -0.45141923
79.626244 16.99239 -65.203819 0.55744267 0.69098651 -0.46021232
77.679672 12.059484 -74.036949 0.54670274 0.65918821 -0.51632077
66.527267 17.4118 -78.136703 0.47492629 0.69675684 -0.53756392
107.09441 7.4344645 -25.488733 0.76484835 0.62277144 -0.16481122
83.880112 16.610865 -60.238895 0.59955239 0.68852514 -0.40800756
66.176086 14.399748 -82.030235 0.46294877 0.66318405 -0.58810312
73.404053 13.862912 -76.196503 0.52317357 0.66554993 -0.5322901
83.481674 11.773779 -67.855492 0.60588497 0.64616621 -0.46408266
96.722107 10.51818 -48.889256 0.69723696 0.63556087 -0.33154628
62.24165 12.44767 -87.086395 0.43881667 0.65554512 -0.61457342
90.253792 12.612899 -57.054085 0.63855767 0.66326618 -0.39028466
92.682854 9.0799179 -58.670826 0.66711533 0.62166566 -0.41047391
76.27961 8.7016268 -79.546791 0.5426622 0.62968969 -0.55588549
81.573738 7.8204956 -75.009758 0.58270019 0.62493074 -0.51954025
107.55647 4.4729691 -33.563972 0.76760346 0.60039264 -0.22430676
62.232208 5.5673642 -93.859673 0.42866302 0.60284656 -0.67292202
65.164337 5.149879 -92.251076 0.45450237 0.60033953 -0.65804249
110.66556 0.35379365 -33.671276 0.79129606 0.57063621 -0.21960154
79.985428 6.1714363 -78.694328 0.57259572 0.60750693 -0.55051744
92.565285 3.5058482 -66.625137 0.65884548 0.59811878 -0.45626354
89.156273 4.3965693 -70.180977 0.63605458 0.60491055 -0.47908017
76.00853 4.5054307 -84.204155 0.53872156 0.59901816 -0.59241575
87.316467 3.961587 -73.018333 0.60729045 0.59915495 -0.52173907
83.475639 1.7142388 -79.885368 0.58694375 0.58264285 -0.56216049
92.053246 0.14989227 -71.615692 0.66767621 0.54683459 -0.50515383
116.07299 -8.3585491 -33.598721 0.83594465 0.49718055 -0.23239633
102.10813 -4.3132205 -61.227356 0.74464512 0.51420993 -0.42554885
89.598015 -1.7418461 -76.487144 0.6378693 0.53810602 -0.55096704
81.904541 -4.4655528 -87.022141 0.58690536 0.51342559 -0.62604815
41.304211 28.861694 -66.147903 0.022746142 0.99963939 -0.014271201
109.90363 -8.0350895 -50.618313 0.78832561 0.49491006 -0.36552277
66.695297 -5.7474294 -99.869789 0.4692356 0.50364399 -0.72536939
71.222923 -5.4124641 -96.555725 0.51676232 0.5162288 -0.68298215
6.5310225 29.144564 -65.343681 0.0088478634 0.99992567 0.0083891805
83.376503 28.121769 15.507291 0.12705599 0.99148881 0.028402524
86.188072 27.504213 13.854198 0.36009529 0.92939627 0.080956869
86.54348 27.942385 5.2624888 0.38302431 0.92262936 0.045248579
81.20504 28.28735 6.5381513 0.0077094007 0.99995881 0.0047894102
82.55706 28.243183 1.7516061 0.03264026 0.99944872 0.0060774987
84.809731 28.271826 5.7740984 0.098619938 0.99497944 0.017030435
81.411705 28.31407 0.90341395 0.043109372 0.99902087 0.0099430429
45.026878 29.325209 -42.369617 0.026311344 0.99964976 -0.0028477765
49.248978 29.183149 -40.613243 0.0076719373 0.99993306 0.0086576752
43.746727 29.428843 -45.698753 0.044588819 0.99826235 -0.03852392
22.600929 29.295208 -61.309067 -0.014561089 0.99976182 0.016260248
46.454212 29.197647 -48.555943 0.0072577186 0.99983424 -0.016692642
18.445381 29.279057 -60.23106 -0.013032974 0.99955708 0.026754225
57.764565 29.11668 -40.626389 0.0079347305 0.99961191 0.026703373
54.09288 29.263201 -43.24168 0.003514397 0.99996799 -0.0071802977
8.208334 29.275419 -66.550529 -0.024177808 0.99970657 0.0014926282
80.674202 28.660698 -29.541275 0.074573219 0.99693745 -0.023546748
54.573009 29.103613 -47.335632 0.023039257 0.99960512 -0.016088841
18.360155 29.41152 -65.452515 -0.017287293 0.99983013 0.0064003738
62.123653 29.129044 -42.518921 0.030078759 0.99943423 -0.015047544
16.245724 29.295467 -67.919006 -0.0036495179 0.99989223 0.014219751
11.510316 29.430784 -71.265846 -0.024196211 0.99968165 -0.0071661654
60.245972 29.18178 -43.02552 0.038591601 0.99925506 9.3485076e-05
51.036835 29.22476 -47.003441 0.012083223 0.99991161 -0.0055493368
35.997135 29.325874 -62.302814 0.035207532 0.9992637 -0.015249882
34.869545 29.247387 -65.316383 0.019261405 0.99905729 -0.038904227
46.402378 29.165154 -57.648247 -0.00074154581 0.9999997 0.0003321672
62.890621 28.838161 -50.378242 0.025597347 0.99966693 -0.0032953061
