# .PCD v0.7 - Point Cloud Data file format
VERSION 0.7
FIELDS x y z normal_x normal_y normal_z
SIZE 4 4 4 4 4 4
TYPE F F F F F F
COUNT 1 1 1 1 1 1
WIDTH 730
HEIGHT 1
VIEWPOINT 0 0 0 1 0 0 0
POINTS 730
DATA ascii
56.591396 7.9595122 -40.981651 0.29436892 0.51425284 -0.80553764
54.394257 7.0684934 -42.322056 0.23852924 0.48494485 -0.84138721
18.006714 10.731663 -38.993881 -0.203086 0.71867955 -0.66502309
16.256313 12.42366 -36.456032 -0.22968829 0.75875503 -0.60953593
34.108425 11.091207 -41.400784 -0.021462915 0.66053605 -0.75048745
3.5228212 10.479846 -32.661327 -0.39435828 0.66461849 -0.63463664
57.888702 6.0750704 -41.651031 0.29810578 0.45138708 -0.8410604
53.036369 7.547255 -42.328201 0.17664532 0.51207256 -0.84058207
55.391453 5.2705731 -42.991112 0.27017587 0.39464182 -0.87821573
11.162231 10.087743 -36.901432 -0.30558118 0.66409332 -0.68234903
30.624506 10.2856 -41.998829 -0.092981152 0.63363272 -0.76802611
58.707458 4.0593381 -42.414852 0.28510705 0.35632733 -0.88980043
28.988939 8.447691 -42.758854 -0.090626627 0.54475868 -0.83368146
30.010983 7.0094995 -44.226616 -0.12114291 0.51331401 -0.84960765
27.987717 6.65171 -43.871506 -0.1505416 0.47499561 -0.86701578
1.9735348 4.0113583 -36.205753 -0.47156021 0.37993026 -0.79579133
53.618164 2.0456977 -44.783428 0.22333021 0.31954724 -0.92087632
57.305058 -0.48484632 -44.556641 0.26983336 0.30492494 -0.91335136
51.578789 -0.63524729 -46.072701 0.2069241 0.2806752 -0.93723202
9.2606678 4.62498 -39.60165 -0.35501751 0.46206781 -0.81268442
-2.2752814 1.6112448 -34.616055 -0.51775545 0.33387384 -0.78769135
50.084522 1.6882715 -45.45583 0.18639486 0.3559728 -0.9157185
45.597828 -9.4759283 -49.175117 0.077827729 0.22337574 -0.97162038
-3.9144948 0.24636966 -33.946953 -0.55841303 0.28016439 -0.78082192
9.8136158 2.4536088 -40.953819 -0.3908585 0.35708085 -0.84836477
-1.2718602 -0.91082287 -36.194244 -0.54314697 0.2595695 -0.79850799
-10.315784 -0.21344717 -28.843843 -0.64684743 0.3001681 -0.70106173
50.294849 -2.8182967 -46.96299 0.21126682 0.2594763 -0.94235784
50.47691 13.619534 -37.031425 0.13088289 0.83299291 -0.53758019
-22.843536 -6.8202372 -16.768536 -0.82114983 0.1906018 -0.53794414
73.982582 13.991247 -24.844036 0.29935658 0.87261981 -0.38590184
72.575302 15.039421 -22.169132 0.18856348 0.95597512 -0.22484529
69.954269 15.423026 -23.7285 0.23717685 0.92023861 -0.31130049
73.0187 13.480524 -26.95706 0.3367244 0.8371135 -0.43111223
70.720367 14.526637 -25.904953 0.22190171 0.93366629 -0.28111714
68.401657 15.040812 -25.594727 0.17294176 0.94644511 -0.27264059
75.536934 12.267117 -26.87031 0.4047215 0.7774086 -0.48149386
67.73671 14.665609 -28.359488 0.20053001 0.93731487 -0.2850062
65.120209 15.002798 -27.714624 0.15455337 0.95687723 -0.24596612
70.225365 13.330152 -29.067766 0.30798402 0.81752461 -0.48662046
70.782631 14.052192 -27.094942 0.28677732 0.87721193 -0.385043
68.01606 13.8892 -29.393562 0.259727 0.84929866 -0.45960158
64.815605 14.756927 -29.47508 0.16735148 0.9161551 -0.36421597
73.085236 12.515331 -28.334557 0.36447725 0.76825863 -0.52624607
69.507881 12.06769 -31.423822 0.35526016 0.73835146 -0.57326031
62.218727 14.990343 -29.823597 0.16288993 0.9361729 -0.31152385
60.137291 15.373837 -29.624302 0.10552028 0.96117949 -0.25494993
63.504704 14.197406 -31.037146 0.20676665 0.88059235 -0.4263854
41.52269 15.639578 -30.135216 -0.069991916 0.99716789 0.027517339
40.204967 15.632849 -33.243069 -0.019339815 0.98618054 -0.16454174
37.099903 15.666982 -31.644215 0.040417671 0.99639207 -0.074627213
34.07193 15.787733 -30.689209 0.02604109 0.99948704 -0.018640734
39.620228 14.867378 -35.645359 0.006147271 0.93956262 -0.34232175
38.537193 15.502825 -32.538845 -0.030893318 0.99949789 -0.0070435763
36.7393 15.437907 -34.3442 0.007501048 0.9716267 -0.23640066
34.340702 15.663179 -33.114239 -0.010920041 0.98111439 -0.19311993
37.196075 14.856598 -35.541321 0.023106843 0.93688238 -0.34888056
31.181448 15.476815 -33.720093 -0.018222854 0.98526216 -0.1700781
31.447397 14.757334 -35.914253 -0.038691312 0.93406588 -0.35499847
33.927032 14.240457 -37.43235 -0.021171384 0.89175206 -0.45202878
31.530413 13.966385 -37.53178 -0.065520085 0.84982759 -0.52297252
59.772507 7.7225242 -40.081112 0.30880806 0.5144484 -0.79998779
9.668973 14.193905 -30.521923 -0.19036765 0.90647572 -0.37691095
62.414394 4.3686543 -40.635571 0.33806387 0.3823778 -0.8599419
62.551777 6.3206444 -39.734756 0.32081902 0.47711578 -0.81819052
17.725128 13.66071 -35.008713 -0.16183725 0.87512475 -0.45603216
64.513947 2.3623769 -40.842384 0.3389774 0.3623805 -0.86820203
60.508671 4.1711721 -41.784782 0.35516316 0.40603101 -0.84202009
21.524837 13.473702 -36.544239 -0.15003569 0.8386271 -0.52363527
14.539584 13.055946 -34.763302 -0.22665319 0.82342446 -0.5201928
-9.4605103 10.25021 -22.325592 -0.54346043 0.63411385 -0.55004573
8.6850252 10.055743 -35.805859 -0.32235155 0.64258975 -0.69510275
38.975006 3.6123896 -46.025665 0.025126031 0.41495436 -0.90949523
8.1002741 6.7189894 -37.920887 -0.32034564 0.50488102 -0.80154467
32.614288 2.8830173 -46.153435 -0.049244855 0.35523972 -0.93347716
53.586151 -2.6092019 -46.056702 0.23435803 0.22792794 -0.94505304
11.460444 7.2652268 -38.896603 -0.36340454 0.49007374 -0.79231614
36.097771 2.8877113 -46.445446 -0.027421013 0.35569486 -0.93419975
14.689514 5.2118869 -41.619652 -0.31275895 0.43896106 -0.84231532
37.083996 -0.27498555 -47.431602 -0.020832032 0.28335115 -0.95878989
30.037777 1.5244793 -46.761311 -0.088470243 0.32108012 -0.94291073
49.810158 -4.4967628 -47.556789 0.17774662 0.19424857 -0.96471423
48.288036 -6.6028976 -48.089985 0.19327235 0.18161397 -0.96418989
20.346687 1.3932068 -44.925457 -0.23177305 0.33888599 -0.91183203
11.728152 4.2472444 -40.9897 -0.3399395 0.41684729 -0.84301805
-18.455564 -1.1238137 -20.315718 -0.75505322 0.28900084 -0.58853477
47.305286 -8.2302275 -48.705231 0.11762598 0.20450206 -0.97177315
42.926308 -6.8019562 -48.650215 0.075495288 0.18373768 -0.9800719
27.411688 -1.6982913 -47.277718 -0.14020561 0.26744804 -0.95331728
-16.490131 -2.3058629 -23.404436 -0.71954405 0.28096908 -0.63506907
48.592487 -9.5969381 -48.667427 0.2178538 0.1865136 -0.95799392
41.692028 -8.1906643 -49.162914 0.047639862 0.15685456 -0.98647207
18.121481 1.6242975 -44.225613 -0.27974406 0.31349549 -0.90744913
39.122658 1.2435602 -47.005756 0.023512311 0.31648189 -0.9483071
27.990063 3.2809172 -45.60606 -0.14090645 0.40783933 -0.90211552
7.177114 14.254281 -28.80064 -0.20434044 0.91063339 -0.35915446
66.621674 13.071377 -31.713055 0.31218013 0.7765922 -0.54721862
60.902405 14.268545 -32.414204 0.17272766 0.90516537 -0.38838229
64.098991 12.533892 -33.481602 0.2208854 0.83668709 -0.50116301
65.151566 12.842605 -32.654202 0.27012303 0.69916242 -0.66197091
60.847401 13.675513 -33.309044 0.22680649 0.81335908 -0.53572923
63.440392 12.443516 -34.374096 0.27319497 0.77350366 -0.57188863
43.414715 15.328421 -34.305611 0.036618475 0.95086139 -0.30744386
36.842094 14.347142 -37.119747 0.010513347 0.87793386 -0.47866651
14.50333 15.603948 -25.614498 0.013714637 0.99913996 -0.039130662
10.080054 15.630046 -25.112293 -0.062897362 0.99524027 -0.074436054
12.383617 15.705567 -23.762722 -0.015529964 0.99966979 -0.020475147
10.568828 15.571781 -21.244631 -0.029185487 0.99939823 0.018743819
11.731591 15.288612 -28.336489 -0.13336034 0.9583953 -0.25237557
7.244987 15.299153 -25.017824 -0.1203554 0.98241687 -0.14272942
7.8177924 15.558332 -23.021652 -0.057692058 0.9974339 -0.04239475
-5.1655989 15.427205 -11.347234 -0.063296765 0.9972834 -0.037674833
-6.2666173 15.336604 -8.3193359 -0.12062069 0.99257177 -0.015874466
8.7453594 15.090879 -27.32711 -0.14884372 0.96075386 -0.23408902
-6.8838768 15.058335 -12.656355 -0.22685094 0.96585691 -0.12513654
5.8055234 14.47217 -27.592949 -0.2319753 0.91252899 -0.33686537
8.0719118 13.281224 -31.470499 -0.26960382 0.83295435 -0.48321912
5.5309658 13.302484 -29.955349 -0.3101294 0.80390209 -0.50750482
7.6230931 11.672264 -33.499748 -0.31740364 0.73711342 -0.59658921
14.618003 9.776494 -38.627369 -0.2674869 0.66594148 -0.69639981
-5.3119593 11.488076 -24.428339 -0.46757892 0.7377466 -0.48692909
-7.4994206 11.690373 -22.149708 -0.45228654 0.75164551 -0.48006877
13.021627 8.509366 -39.109852 -0.36277539 0.5091086 -0.7805143
0.53143495 10.033262 -30.956244 -0.4277879 0.67324811 -0.60310405
15.518901 8.3530512 -40.130302 -0.27542388 0.52387232 -0.80603933
-25.839941 6.5559039 -0.25229344 -0.81270939 0.51600182 -0.27063915
18.688372 5.1240826 -42.901829 -0.24255237 0.42947343 -0.86989707
5.9272857 6.6345863 -37.198307 -0.41392478 0.50317645 -0.75860375
-0.94511527 8.2722616 -31.57836 -0.46435517 0.53011173 -0.70947582
3.0936344 7.0037227 -34.976479 -0.45979169 0.49754959 -0.73555148
6.4630303 3.9084568 -38.775948 -0.3847256 0.38582829 -0.8385241
-2.9260011 5.1305776 -32.394943 -0.53257871 0.45229626 -0.71539366
-0.98073012 4.6382008 -34.043156 -0.48911586 0.44195879 -0.75195611
-6.559988 3.2345011 -30.760294 -0.60981566 0.36817902 -0.70183265
-4.9325924 2.8630762 -32.137592 -0.54928732 0.37231284 -0.74810869
-28.553034 -0.24415562 -1.3299501 -0.90364671 0.28786233 -0.31710884
10.526787 0.5656715 -41.992607 -0.35732836 0.30786416 -0.88178009
-19.170975 1.0232697 -18.364016 -0.75577372 0.34367675 -0.55739784
42.761189 -9.635438 -49.317677 0.053170908 0.1911657 -0.98011667
-32.203209 -2.3140333 9.3074312 -0.94653553 0.25696912 -0.19503179
-30.905231 -3.0612795 3.167244 -0.9232108 0.25682801 -0.28586933
-11.750427 -10.56305 -30.560707 -0.6005792 0.28149083 -0.74837661
-28.59803 -2.9375331 -3.479934 -0.90355444 0.26053244 -0.34016511
66.134491 15.772579 -25.038612 0.08297281 0.9861303 -0.14374465
39.578457 -5.1164365 -48.770725 0.038311094 0.21268614 -0.9763692
15.931338 -4.8012314 -45.313847 -0.28026551 0.24258544 -0.92876452
5.2176981 9.6023273 -34.359638 -0.39836848 0.60183352 -0.69216973
63.809608 13.39146 -32.731621 0.23269163 0.8537696 -0.46575961
7.250701 -10.450767 -44.128548 -0.13998604 0.86312413 -0.4852016
41.540321 14.080901 -37.404678 0.03058093 0.89388329 -0.44725546
39.417816 11.420442 -40.977577 0.030605465 0.7390759 -0.67292655
38.771038 12.988259 -39.209976 0.012969183 0.79125804 -0.61134487
5.755815 15.423845 -22.912319 -0.1465968 0.97862935 -0.14420134
-0.38751861 15.415035 -14.034318 0.0091319131 0.99966252 -0.024322176
5.3847814 14.961456 -25.380783 -0.18629991 0.95775717 -0.21907431
-3.2383418 15.446492 -12.54215 -0.094407886 0.99300265 -0.070942558
-2.8383834 15.306624 -9.7492285 0.022718525 0.99884731 0.042284451
-2.3330219 15.394657 -15.602327 -0.10436335 0.99092674 -0.084690474
22.587709 10.840237 -40.152271 -0.1549127 0.71598762 -0.68070823
18.194357 8.8622437 -40.614471 -0.22493333 0.58440858 -0.77966112
3.3390605 13.240495 -28.571753 -0.3014355 0.84464657 -0.44238979
1.3138926 13.631378 -26.453968 -0.31274125 0.87152147 -0.37768134
-1.8093158 13.116623 -24.711138 -0.32516834 0.86092359 -0.39124933
21.10528 8.1214552 -41.741005 -0.20017147 0.50258291 -0.84103608
1.6211054 12.13209 -29.209642 -0.38109446 0.75536406 -0.53309673
-1.1768596 11.864889 -27.364897 -0.38039696 0.77037781 -0.51167977
-9.6247244 12.168484 -18.863346 -0.47255665 0.78850865 -0.39362958
-5.9183164 9.8345118 -26.007973 -0.50599122 0.67086613 -0.54213595
-14.589667 10.387867 -15.872001 -0.58313531 0.683137 -0.43963286
-18.370905 11.748837 -6.7748122 -0.55030477 0.77965277 -0.29884154
-23.901978 9.720767 0.81061614 -0.72551173 0.64191061 -0.24816041
-11.811165 10.506575 -19.220776 -0.55795979 0.69749731 -0.44964251
-26.368895 7.870132 4.2351866 -0.79019362 0.56710732 -0.2323433
-15.39785 5.4015336 -20.12805 -0.67379141 0.43801251 -0.59510523
4.8210416 -1.9006609 -40.151665 -0.45809612 0.26129466 -0.84963113
3.4805603 -0.067837082 -38.734047 -0.46192747 0.30838692 -0.83157712
-10.725542 -7.8897099 -30.997213 -0.66892517 0.16715443 -0.72429174
-6.4266963 0.14605403 -32.202477 -0.59966731 0.28686708 -0.74706519
-16.755814 1.2162415 -21.428038 -0.72538948 0.33514082 -0.60124093
-7.8127823 -2.4345555 -31.90834 -0.63234967 0.25984612 -0.72980398
-31.170773 -1.3624183 5.6632943 -0.94398552 0.26945737 -0.19048369
-2.2422223 -3.6120563 -36.377701 -0.53839403 0.24360135 -0.80671573
-34.21365 -7.1396012 26.78986 -0.9852854 0.1638263 0.048719056
23.164221 6.0801644 -43.568321 -0.18102396 0.4717077 -0.86297286
12.802159 -1.1547815 -43.391399 -0.31651801 0.27498084 -0.90785569
-5.8330984 14.912897 -14.565508 -0.19483928 0.9663049 -0.16820367
-12.514462 -7.6511674 -29.258471 -0.69411111 0.170137 -0.69947356
-15.426606 -7.3916049 -26.290232 -0.71918637 0.17964114 -0.671193
20.180286 15.498654 -31.027113 -0.086245857 0.96990556 -0.2276946
22.091555 15.276107 -32.591393 -0.052288711 0.96904445 -0.24128561
-17.045391 -5.5636249 -23.77636 -0.73219192 0.20712449 -0.6488409
22.324238 9.3524466 -41.368576 -0.18283756 0.54564673 -0.81782651
25.850182 9.6772156 -41.815559 -0.10858423 0.65673155 -0.74626613
0.040876601 15.296716 -17.466888 -0.045849055 0.99610639 -0.075299457
0.23597488 14.642879 -22.197027 -0.21787895 0.94312555 -0.25108337
-1.8585742 15.030678 -18.549339 -0.15471078 0.97470033 -0.16131903
-2.2651992 14.601352 -19.715324 -0.22822464 0.94382399 -0.23897654
-15.874094 14.941 22.135811 -0.09479963 0.99547732 0.006155957
-2.4378514 14.003761 -22.238819 -0.26567426 0.90723336 -0.32610556
-5.288919 14.603205 -17.287481 -0.21576738 0.96087855 -0.17365734
-15.641362 15.039 18.332506 -0.26863605 0.96303695 0.019861657
-14.95003 14.75193 20.414824 -0.10399496 0.99442828 0.017244473
-4.5078497 12.862905 -22.774069 -0.3896865 0.82487655 -0.40953997
-4.3796144 13.981651 -20.448044 -0.3092407 0.89710385 -0.31555471
-9.9675217 14.607988 -10.026977 -0.23520768 0.96392173 -0.1246291
106.81811 -4.9052687 10.017898 0.96440941 0.20999655 -0.16067353
-14.411256 15.106433 5.3045092 -0.23567709 0.9712851 -0.03258143
-6.1954832 13.947961 -18.646524 -0.29306865 0.91252816 -0.28531232
-10.626503 13.632686 -14.077561 -0.33845675 0.90979725 -0.24024172
-21.088047 13.973906 18.983585 -0.30439132 0.95249587 -0.0098706763
-14.591917 13.266842 -9.2064362 -0.42015088 0.88077658 -0.21841675
-15.098042 14.525539 -0.94747698 -0.29997349 0.94626796 -0.12080076
-8.5125237 13.661864 -16.860235 -0.37523657 0.87946457 -0.29281327
-9.3305454 13.833019 -15.09659 -0.31877652 0.91695839 -0.23993514
-17.519978 13.903625 -0.0082887458 -0.36111763 0.91926426 -0.15667583
-15.940379 14.644381 2.5911469 -0.27489614 0.95845616 -0.076118521
-3.4692385 12.109515 -25.384691 -0.43139303 0.76339537 -0.48075742
-8.9485092 11.597405 -20.730928 -0.48062408 0.77194029 -0.41606328
-11.427779 12.382687 -16.181482 -0.47744811 0.79364944 -0.37704629
-13.350368 13.138614 -11.826198 -0.45197433 0.84748256 -0.27837482
-13.340032 12.133328 -14.351501 -0.51220989 0.77732223 -0.36525488
-20.564339 11.737301 -2.0576293 -0.60339355 0.76184958 -0.23558736
-16.070265 12.21769 -9.4402332 -0.52047598 0.80678117 -0.27965853
-17.515553 9.6603804 -12.933232 -0.65173614 0.63372928 -0.416686
-16.780046 10.887803 -11.75168 -0.55507284 0.76624918 -0.323661
-33.407791 -5.3534422 32.009541 -0.9729898 0.18533318 0.13763133
6.0015793 0.24397543 -39.962902 -0.42045885 0.31748354 -0.8499521
4.9208241 3.3934395 -38.184151 -0.46614325 0.37631869 -0.80068392
-25.518396 10.467491 9.4619417 -0.694839 0.70395476 -0.14712732
-25.000183 7.1632094 -1.9118744 -0.76735044 0.57064664 -0.29246515
-6.5524769 4.9291015 -29.584017 -0.57073796 0.41156736 -0.71054238
-29.338337 6.4307718 14.558623 -0.85809952 0.50558692 -0.089705393
-29.526514 6.5349059 16.485344 -0.84903651 0.51889706 -0.099412799
-21.881813 5.3989477 -10.751053 -0.7910291 0.41569889 -0.44885126
-32.047897 1.213009 17.710855 -0.93803191 0.34083664 -0.062662952
-31.224798 2.7145219 14.891748 -0.9151504 0.39483032 -0.08129473
7.2939057 -9.9193296 -43.195641 -0.38351661 0.33451006 -0.86082399
3.9473512 -9.6885853 -41.515884 -0.42733389 0.27482757 -0.86131036
-32.762764 -0.74599504 18.295416 -0.95411378 0.29651693 -0.041767377
-12.46275 -3.4919317 -28.225538 -0.68134701 0.23550193 -0.69304049
4.5314941 -10.820518 -42.592705 -0.41854507 0.50322723 -0.75603074
-32.874744 -3.1729536 31.338387 -0.96287537 0.24793158 0.1067747
-14.444692 15.035014 10.407273 -0.12847659 0.99162364 -0.013276435
-15.098849 -4.6481256 -25.782267 -0.7190125 0.21275277 -0.66163224
-33.442104 -3.2488804 24.143007 -0.97367996 0.22761954 0.011696119
-13.146459 -5.7956171 -28.015768 -0.6940195 0.18101232 -0.6968295
17.465693 7.1517839 -41.439503 -0.23731935 0.48033372 -0.84436905
-7.2548418 13.001638 -19.891649 -0.40711698 0.82836676 -0.38479117
-27.348225 7.7421613 7.2935863 -0.79624903 0.58178383 -0.16587625
7.4118004 -2.0250084 -41.438507 -0.40115681 0.26359451 -0.87726343
-29.973896 -1.5095134 1.7044191 -0.91917086 0.26285678 -0.29331109
-14.767381 -10.654811 -27.65304 -0.63815391 0.50865912 -0.57794935
-28.005287 -3.5714374 -5.3189774 -0.892331 0.2579625 -0.37040615
-13.699618 -11.537845 -30.152689 -0.56246513 0.54498887 -0.62178779
-15.955239 -11.450243 -28.832645 -0.26296499 0.90169108 -0.34322387
-9.9375477 -3.5111718 74.976097 -0.67154026 0.22735763 0.70522493
131.70937 -45.640331 170.56494 -0.52321827 0.68424284 0.50799042
134.18294 -46.435326 173.69879 -0.63756394 0.55349934 0.53586441
124.0438 -43.83844 160.10378 -0.86739135 -0.4961116 0.038801499
-18.222258 14.546074 10.443737 -0.20998086 0.9770546 -0.035669658
-15.83882 14.902826 14.025137 -0.15504189 0.98785812 0.0099171456
-16.61306 14.559847 16.108286 -0.14867289 0.9888823 -0.002873837
-18.13172 14.567977 17.42314 -0.13728489 0.99046648 0.011366292
-19.093132 14.509192 14.597702 -0.21851018 0.9757883 -0.0095181195
-12.049119 9.2262478 -20.68133 -0.61056119 0.59520328 -0.52244431
-14.065022 7.7825537 -19.869003 -0.63246202 0.53670001 -0.55852026
-18.441643 10.334617 -9.8098364 -0.6315589 0.69592589 -0.34179035
-22.447472 9.6497269 -3.1936085 -0.70508653 0.64902639 -0.28568807
-20.644196 11.034806 -4.5565038 -0.70474946 0.65901738 -0.26272476
-16.94599 8.9050388 -14.527123 -0.67703235 0.57493663 -0.45942894
-20.376583 10.381896 -5.9611673 -0.668459 0.66309804 -0.33684355
-11.505092 2.3162656 -26.73551 -0.66331607 0.37805185 -0.64582396
-24.123907 10.533317 3.7742667 -0.68492371 0.70348996 -0.18968737
-20.317024 7.492106 -11.100945 -0.72019464 0.54991525 -0.42298105
-22.315861 8.4198189 -5.8007746 -0.75079238 0.56079006 -0.34903497
-28.132912 8.908432 17.473978 -0.73741764 0.6728512 -0.059047103
0.86558872 -2.807909 -38.35091 -0.49614811 0.24430004 -0.83315939
-10.102274 1.782644 -28.129179 -0.62565213 0.32141623 -0.71081007
-19.729109 6.3301396 -13.234267 -0.73306096 0.49465185 -0.46684164
0.22874883 -3.6919172 -37.886517 -0.5347178 0.21516196 -0.81717944
-20.629932 8.4737482 -9.2853365 -0.71230471 0.59717435 -0.36878812
-20.739822 3.2338068 -14.506332 -0.77054733 0.40885472 -0.48897299
-27.456511 8.8359632 12.037751 -0.80972224 0.57636166 -0.11025924
-27.830442 8.4735708 15.910591 -0.81860656 0.56377465 -0.10973294
-0.98640865 -5.5181489 -37.824825 -0.52162105 0.23087232 -0.8213461
-22.94076 5.3031325 -8.9797688 -0.79592443 0.45150027 -0.40330124
-24.222988 6.1847219 -4.9249997 -0.7956177 0.48718512 -0.36005983
-25.22007 4.4092369 -4.8099833 -0.83811253 0.42539015 -0.341483
-25.21253 6.0743632 -2.946995 -0.8247903 0.45429674 -0.33665323
-27.206442 5.425561 1.5086465 -0.84451246 0.45935676 -0.27530012
-28.344749 4.9475703 4.5413294 -0.86914396 0.43170619 -0.24128515
-24.463646 4.4809961 -6.7577233 -0.82302523 0.42542577 -0.37635413
-17.315578 -11.59009 -27.519533 -0.33660185 0.8634541 -0.37569413
-27.337692 2.9258239 -1.4642336 -0.86186522 0.39338705 -0.32005477
95.891083 -15.962119 117.28426 -0.034355462 0.70553595 0.70784086
-32.215725 -5.6215916 5.7302055 -0.95661694 0.2064659 -0.20556238
-31.679882 -2.8824286 7.171401 -0.94974554 0.25340948 -0.18375818
-32.537476 -4.9123907 8.6224174 -0.96044594 0.19812727 -0.19567619
-29.852615 0.56594157 3.5763469 -0.90692949 0.33960429 -0.24929468
-28.065332 -0.37752414 -2.9434204 -0.8957665 0.28962913 -0.33722004
-33.295002 -3.0238929 15.533572 -0.9685216 0.23433706 -0.08397679
-13.942551 -8.2689314 -27.897108 -0.6790908 0.25953817 -0.68664086
-15.283331 7.6728606 -18.594492 -0.66137946 0.55665368 -0.50270665
130.35545 -45.521717 168.46812 -0.66899151 0.59278536 0.44839251
132.59004 -46.144276 171.79222 -0.54868633 0.64422256 0.53284204
-25.527222 9.575572 6.3261533 -0.72533256 0.66451496 -0.17975675
-9.1726656 4.7445378 -27.418894 -0.6683951 0.38367271 -0.63721532
-33.465828 -2.7064095 20.996822 -0.97215599 0.23418432 -0.0083922679
-32.987808 -6.1071301 9.5496807 -0.96090937 0.20665139 -0.18425117
2.7725775 14.88142 -22.678219 -0.15363486 0.97545016 -0.15777591
0.45457479 15.122905 -20.568029 -0.17988001 0.96447927 -0.19344991
1.7057176 14.514522 -24.422859 -0.23347521 0.94114196 -0.24442019
78.759094 -9.7866468 100.70257 -0.5161317 0.75358629 0.40708202
-3.110225 8.728426 -29.678633 -0.50099432 0.57088768 -0.65045524
75.545532 -8.3450994 94.940651 -0.68890017 0.49322817 0.53117085
-5.6093044 8.6242142 -27.532791 -0.55274874 0.57809871 -0.60022551
-4.3799458 9.3486538 -27.954929 -0.53936541 0.599554 -0.59128672
-7.1595984 9.1440296 -25.55781 -0.55106562 0.58983153 -0.5902757
-6.1003428 7.206883 -28.430702 -0.54374659 0.52592331 -0.65402168
-7.7232871 8.1489887 -26.004492 -0.55700606 0.57936484 -0.59504676
-19.336123 13.787796 4.0405326 -0.34162232 0.93609905 -0.083741784
-15.063653 14.7674 23.093952 -0.074283257 0.99636114 0.041789386
-14.200767 14.844493 26.735479 -0.11222786 0.99366701 0.0055567338
-17.700127 14.608646 23.857988 -0.098370954 0.99415576 0.044467989
-11.770573 7.5710764 -22.730091 -0.61486721 0.54074788 -0.57404709
-13.069961 7.5589719 -21.02211 -0.67552847 0.48761207 -0.55307847
-17.356424 14.484569 27.363949 -0.11217707 0.99347472 0.020596236
-13.280482 5.2306328 -23.009079 -0.67818087 0.42051759 -0.60269034
-21.945124 13.535073 15.175658 -0.38988346 0.91973346 -0.045621201
64.739677 0.98017138 86.998978 0.38944021 0.16814993 0.90557277
-17.973314 14.473534 30.852318 -0.21417223 0.97614884 0.035550591
-19.921413 14.206965 28.53153 -0.1998769 0.97943395 0.027539853
-17.074078 4.7115979 -18.608189 -0.72557616 0.41261235 -0.55071801
-19.173214 4.8682933 -15.651902 -0.75081789 0.41436297 -0.51436937
-17.603319 7.1533504 -15.775312 -0.71809936 0.50112587 -0.48291421
-13.056114 0.52798027 -25.945673 -0.69881141 0.2972061 -0.65063906
-13.962948 1.6486579 -24.139273 -0.71333694 0.3213273 -0.62281561
-24.604059 12.132962 16.322552 -0.58768535 0.80815393 -0.038899869
-23.964809 12.523993 19.381111 -0.49362513 0.8695057 -0.017145161
-26.279545 10.22129 12.418016 -0.69306856 0.71131492 -0.11699124
-25.171274 11.741457 20.081539 -0.63585651 0.77137208 -0.025916737
-24.311844 12.153411 13.578724 -0.60121536 0.79443306 -0.08611729
-14.679495 -0.67652941 -24.319126 -0.70548129 0.3137064 -0.63551903
-26.602489 10.207408 14.3029 -0.75440925 0.6512419 -0.082161836
122.87312 -40.367397 154.33487 -0.5723471 0.51041687 0.64178932
122.91164 -42.090195 155.50836 -0.79262012 -0.011348967 0.6096102
130.61827 -43.136089 165.91313 -0.582304 0.6564694 0.47955182
128.4447 -43.341244 163.35258 -0.61581433 0.557374 0.55687255
131.18286 -44.230625 168.11052 -0.60583812 0.63553292 0.47860014
-27.392534 9.2115574 29.345785 -0.79622543 0.59962142 0.080494434
126.11803 -43.92252 161.63588 -0.53489065 0.61976886 0.57426345
126.68029 -44.635521 162.11508 -0.4365811 0.69423562 0.57221836
-26.81843 1.6968188 -4.282475 -0.8586477 0.36250457 -0.36237335
128.2579 -44.986584 164.5396 -0.56410521 0.69889504 0.43969437
129.57794 -45.417786 167.32104 0.016025469 -0.98246849 0.18573892
-29.217762 7.1521211 18.541374 -0.86328137 0.50314534 -0.039875045
127.18655 -45.313629 165.14644 -0.32243726 0.86359596 0.38760328
-29.155874 1.3600833 1.7942044 -0.89430159 0.34629598 -0.28337938
-29.312222 7.1996975 22.519489 -0.8597579 0.51066583 0.0060507692
-29.06901 7.6373711 25.798208 -0.83442098 0.54647779 0.071439534
-29.244942 6.5041947 28.836344 -0.86494207 0.48132005 0.14214905
-28.413481 3.6656978 3.011306 -0.89192241 0.38422945 -0.23841576
-30.987167 3.8174167 17.940973 -0.90282363 0.42489171 -0.066154525
-30.549839 5.2819386 21.82658 -0.8946684 0.44672993 0.00091352325
-29.259562 5.1727285 30.00832 -0.87474322 0.48383978 0.026894052
-32.355511 1.165844 22.058491 -0.9338277 0.35620567 -0.032913111
-30.454754 4.9519925 26.210451 -0.89348978 0.44540909 0.057331052
-25.19429 3.669214 49.974064 -0.82547104 0.41732591 0.38004819
-32.504082 0.49369109 24.333027 -0.93884164 0.34091341 0.04852258
-24.437519 2.5061846 52.725155 -0.82214105 0.378429 0.42529473
-31.810591 0.58806056 12.732544 -0.93221956 0.33542243 -0.13586225
-32.517879 -0.7809248 14.775525 -0.94580507 0.30633658 -0.10775273
-31.869625 1.7709697 27.067226 -0.92637825 0.36932445 0.073640265
-25.987778 -0.0019128186 51.836578 -0.85800654 0.30240059 0.41518518
-32.711769 -0.65521854 20.674023 -0.95227575 0.30067214 -0.052603625
-33.181713 -1.506271 22.191969 -0.96457529 0.26376215 0.0049032089
-32.287025 -7.58077 5.0093174 -0.95872658 0.16323018 -0.2328074
-13.455159 -1.6113794 -26.440729 -0.69886428 0.28937414 -0.65410352
-33.749992 -4.3821611 18.598928 -0.974792 0.21971875 -0.038783088
0.087275237 14.029399 -23.496859 -0.29566929 0.89949721 -0.32168993
-22.34059 13.452909 17.328203 -0.45956671 0.88811421 -0.0071873283
-3.589206 6.6398664 -30.871035 -0.53567529 0.48489085 -0.69132686
-15.459148 1.972248 -22.50708 -0.69631624 0.33235288 -0.63614875
125.10368 -44.351765 161.71957 -0.50665224 -0.85407519 0.11772452
-34.16441 -6.3883743 23.209135 -0.98295152 0.18351011 0.011418527
-11.658331 14.201418 -9.9276333 -0.29064196 0.93956357 -0.1809632
-14.302948 13.968388 -6.6476893 -0.38218352 0.90364581 -0.19328763
-11.510289 14.828068 -5.2811723 -0.20224491 0.97338581 -0.1077822
-12.833524 14.827005 -2.4174316 -0.19562885 0.97618085 -0.093810394
-13.188905 14.523912 -4.8650365 -0.26362589 0.95497823 -0.13608047
-14.643308 14.37062 -3.392472 -0.26600257 0.95530462 -0.12897946
-16.392586 13.406143 -4.9854646 -0.3829076 0.90534544 -0.18366097
-18.54447 13.670917 1.5278566 -0.4072395 0.90289605 -0.13760351
80.026802 -8.675869 99.854004 -0.5585081 0.66757208 0.49235782
78.156425 -8.0012398 96.201477 -0.60218221 0.60572636 0.52006942
81.034935 -9.6251631 102.49594 -0.47912553 0.75907975 0.44072279
76.192932 -9.3209686 96.686455 -0.6831103 0.48203647 0.54863578
77.321518 -10.274566 98.989937 -0.80607432 0.33368629 0.48877156
75.415741 -11.056252 95.668083 -0.89073527 -0.27071664 0.36510712
92.29998 -14.947893 115.27322 -0.40255156 0.48436722 0.77674997
75.479362 -11.162877 96.790855 -0.78825486 -0.39282262 0.47365028
78.390709 -10.62604 101.38977 -0.88563323 0.021465581 0.46388903
79.261124 -10.951168 103.19088 -0.70774555 0.38798952 0.59038997
83.374283 -11.066567 106.84448 -0.66143644 0.55511904 0.50432587
84.348961 -12.132273 108.72085 -0.55017042 0.41768137 0.72308701
-19.192501 11.532454 48.952538 -0.54515624 0.79289222 0.27226201
-28.883514 7.207294 30.391497 -0.8577469 0.50961661 0.067535914
-19.997698 9.8843145 51.560524 -0.61898792 0.72027004 0.31315321
-22.145035 11.0762 43.747089 -0.60236615 0.76394713 0.23138681
-26.884113 7.2358456 39.588703 -0.82405597 0.51855707 0.22810125
-31.214266 1.2758135 11.063002 -0.93184769 0.30593672 -0.19509636
-30.511545 4.3692203 28.497545 -0.87026346 0.47892833 0.11519191
-29.686497 4.7521534 33.8423 -0.86957443 0.46887434 0.1549103
-28.667639 6.2799449 35.058487 -0.8609339 0.46959385 0.19563852
-32.291298 -1.5568722 11.754848 -0.94328374 0.2945396 -0.15317383
-31.007675 2.7052898 31.391396 -0.9176749 0.37986115 0.11652593
-27.962996 5.4531264 39.332909 -0.84907967 0.48564172 0.20788418
-5.2778993 -9.7108889 80.348145 -0.56371325 0.10783567 0.81890094
-26.133314 3.7636654 47.699699 -0.84747928 0.40713796 0.34061345
86.190361 -4.2836185 -28.673502 0.66649836 0.21893272 -0.7126348
-32.190483 -0.6239354 32.203449 -0.94497228 0.2973626 0.13639206
-27.87175 0.88503581 46.528076 -0.88658947 0.33906785 0.31462994
-33.724888 -3.9010611 26.166775 -0.97294444 0.22652446 0.045450613
-32.146091 0.52663469 28.672979 -0.94980085 0.29887292 0.092483483
-29.445742 -1.7252078 44.302361 -0.90195948 0.28057489 0.32824811
-33.884468 -6.3973989 15.432358 -0.98094761 0.17158552 -0.091105193
-32.984871 -1.987161 27.46912 -0.95645148 0.27311069 0.10301036
-27.071463 -0.1304514 49.884308 -0.8652572 0.34352478 0.36513114
-33.485992 -6.7663641 11.44664 -0.96553141 0.21117246 -0.15216866
-33.834984 -6.1662364 29.358875 -0.9745155 0.19619474 0.10875291
-32.318596 -3.0464387 34.77026 -0.95440716 0.24001345 0.17748368
-9.1823997 -12.016075 77.380112 -0.67824817 0.075169243 0.73097813
78.729568 -8.6879129 98.237778 -0.60130382 0.64667404 0.46930411
-30.276871 4.4954572 31.410675 -0.87306911 0.48688039 0.026413597
-29.665319 -0.47834048 42.902988 -0.89986002 0.32991359 0.28532267
-6.8974557 -5.7263803 78.111053 -0.62158751 0.18409777 0.76140457
8.9657335 -10.017906 88.089622 -0.38446334 0.13293359 0.91351879
-7.0690856 -8.7476339 78.761101 -0.63630879 0.16306563 0.75400311
-17.221113 12.551524 -6.3930645 -0.48297182 0.83824092 -0.25316092
-19.695135 12.767277 -0.66802651 -0.49042869 0.84956092 -0.19423148
-17.809381 14.318346 6.391118 -0.27142555 0.96114677 -0.050249971
-20.007132 13.576776 6.4265771 -0.34950641 0.93314433 -0.084183805
-22.043383 12.749532 6.788888 -0.49186736 0.85782826 -0.14898717
-21.705627 13.502711 12.860556 -0.39002058 0.919254 -0.053441886
-28.765335 5.2643452 6.8415942 -0.86241698 0.47127312 -0.18476625
-30.488459 3.0062783 10.299485 -0.90477628 0.3875787 -0.17652966
88.124092 -3.7307272 96.745773 0.19818528 0.85792077 0.47401959
85.690552 -3.2884159 96.962692 -0.063345149 0.94411945 0.32345945
-30.170694 4.5114222 11.906329 -0.89623678 0.42721167 -0.11937273
-27.589525 7.6288948 36.023556 -0.82045102 0.53779483 0.19400208
105.39235 -31.529608 132.75386 -0.69230342 0.1006519 0.71455246
-2.2884793 11.216717 70.606926 -0.37863788 0.77975094 0.49862003
-24.472666 8.1586332 44.933693 -0.76296002 0.5915814 0.26062107
-19.221699 9.5261736 53.32954 -0.65561306 0.63508964 0.40845159
-17.603661 8.9411097 57.186569 -0.66459364 0.61927849 0.41810232
-9.3285179 8.8698778 67.433739 -0.53774327 0.63823032 0.55090302
111.58392 -24.238497 105.97031 -0.7984454 0.12633088 0.58866411
1.4476622 9.7289038 75.131248 -0.40424472 0.66481727 0.62817538
-28.378809 4.6111856 40.523006 -0.84759575 0.47024494 0.24586801
-5.0170202 7.9126949 72.272804 -0.55526257 0.56424057 0.61099595
-23.145851 4.658813 53.347767 -0.7851854 0.45713907 0.41774121
-27.189766 4.5667214 43.69384 -0.86109942 0.40982038 0.30092338
-31.554018 -0.64810997 35.396511 -0.93854845 0.28350201 0.19685878
-30.554163 2.339757 35.425594 -0.90797174 0.37127644 0.19427085
-30.268892 0.47925404 39.241585 -0.92188948 0.30999118 0.23243332
-18.324545 6.5958638 58.573978 -0.7157625 0.50123882 0.48625472
-29.285049 2.4090843 40.314774 -0.88630289 0.39406526 0.24326868
-21.886421 3.5508258 56.319363 -0.79321527 0.41125911 0.44908294
-31.348305 -1.8347507 37.962368 -0.93687648 0.27596608 0.21472128
-21.044226 3.3702788 58.12117 -0.73639739 0.44029814 0.51366961
-19.092291 3.8184977 60.34922 -0.74069786 0.45101613 0.49794689
-24.538006 0.72195363 54.134331 -0.82025105 0.36430231 0.44098979
113.07624 -30.502411 136.21394 -0.29108512 0.69340527 0.65913469
-29.016809 -2.6450782 46.537014 -0.89888126 0.26403514 0.34971112
88.540253 -17.850817 114.03886 -0.79630071 -0.12981866 0.59080654
94.731987 -7.0537848 -19.698591 0.79590207 0.20050743 -0.57125878
88.656189 -21.351379 113.30045 -0.81508821 -0.32138774 0.48201784
-8.9674187 -5.1508498 76.343781 -0.65502268 0.18781613 0.73189509
-29.985443 2.6205957 7.0342546 -0.90946466 0.35898909 -0.20976372
-22.026539 11.532207 1.2186043 -0.61153579 0.76155537 -0.21461003
-12.357758 7.521966 65.673943 -0.61345637 0.5736354 0.54278326
91.927925 -18.434929 116.92332 -0.55949205 0.30047166 0.77245408
4.0731568 14.373224 58.772346 -0.068462461 0.99640065 -0.049986046
108.66677 -33.306438 136.28452 -0.55539638 0.45274204 0.6975382
98.194382 -3.46123 -13.085293 0.8274166 0.26078942 -0.49736378
-21.844347 12.253469 3.79092 -0.53936076 0.82584631 -0.16452268
-20.129639 13.849737 10.218454 -0.31918594 0.94533378 -0.066815756
-19.266932 14.14537 8.3169203 -0.38751644 0.91361153 -0.12306507
-23.392179 11.797161 7.0105805 -0.629884 0.7637558 -0.14114967
-20.814007 14.110312 20.822542 -0.28954291 0.95715141 -0.005106037
104.26061 -23.408178 125.28052 0.24133089 0.86631513 0.43732992
112.36887 -24.94495 107.27687 -0.72277337 0.32270545 0.61111349
65.908211 14.35113 68.864006 0.087460347 0.99365354 0.070734553
-28.873171 6.5175915 11.532946 -0.8309139 0.5394569 -0.13626537
-26.484398 10.735785 21.032925 -0.70708269 0.70690697 -0.017794786
55.048897 14.169698 74.902107 0.043407112 0.99142653 0.1232452
14.209651 14.34835 57.613621 -0.049271479 0.99830276 -0.031048551
-28.63673 8.3233585 21.997068 -0.79180801 0.61076862 -0.0012985324
9.7297773 14.273889 57.083115 -0.010651366 0.9996866 -0.022656284
12.823896 14.311315 58.621914 -0.013901243 0.99964064 -0.022918526
9.2454481 14.377717 61.690166 0.0064354818 0.99977785 -0.020066613
11.960393 14.385158 62.366493 -0.0065061403 0.99984413 -0.016417775
-17.906416 12.965626 46.862877 -0.38891762 0.89885288 0.20200633
114.60125 -22.420933 111.11686 -0.84289503 -0.010518054 0.53797519
1.9248796 14.332047 59.601967 -0.0020293219 0.99999177 0.0034846051
4.5017395 14.525092 59.920708 -0.032179888 0.99930334 0.018906303
9.0447855 14.350367 64.199501 0.011712207 0.99965292 0.023599466
-1.5876887 14.414526 58.308552 -0.016378803 0.99985808 0.0039363531
6.8232708 14.421164 60.91938 0.014893794 0.99986076 -0.0075259046
7.2495499 14.458664 63.174232 0.0039596967 0.99979109 0.020052552
109.89205 -25.18255 109.58849 0.50611699 0.82775724 0.24220555
111.41391 -25.80743 108.00606 0.26163834 0.86683768 0.42442647
-2.573483 14.386275 61.382603 -0.063650966 0.99433345 0.085144073
0.59573776 14.302013 63.461014 -0.055818882 0.99467576 0.086627945
16.012722 14.455082 68.954399 -0.049386214 0.99822915 0.033159781
22.540754 14.161119 73.99382 0.0064790854 0.99891794 0.046054181
-20.094727 11.739345 46.506474 -0.55448711 0.7961874 0.24213542
2.278681 14.41353 62.033562 -0.035520252 0.9989602 0.028579768
112.96084 -25.998314 108.45416 -0.77328855 0.19436479 0.60352898
19.742105 14.38012 73.838348 -0.0023794342 0.98730791 0.15879989
4.8544803 14.298243 66.965408 -0.064113557 0.99274725 0.10169715
19.572018 14.106523 75.560204 -0.015267492 0.98991323 0.14084995
26.886503 14.228135 75.4468 -0.0077267736 0.99937159 0.03459556
-5.2938032 13.730427 61.994286 -0.24881436 0.93480819 0.25342673
-2.3926947 13.753652 64.534691 -0.21340878 0.9466309 0.24155061
1.6516023 14.015886 66.801735 -0.12413093 0.97575569 0.18025607
27.002508 13.908745 78.317329 -0.040100057 0.97009057 0.23940833
-22.286232 9.637929 47.353531 -0.65580112 0.69987273 0.28302488
-11.428145 12.859549 57.841152 -0.34989709 0.91031259 0.22114006
3.8204799 13.534521 70.248611 -0.1948902 0.93241787 0.30432653
-23.057917 8.3553028 48.229439 -0.71190655 0.61735654 0.33475354
-12.900991 11.991548 58.619511 -0.45176065 0.84252959 0.29335338
1.7138393 12.955722 70.461647 -0.240326 0.90418679 0.35311431
18.451124 13.664885 77.038132 -0.092305318 0.94849569 0.30304387
9.7226381 12.815008 75.577133 -0.17891499 0.92452937 0.33650374
-13.772618 11.155877 59.123745 -0.53827405 0.73873574 0.40562356
-4.7597098 11.405279 68.180412 -0.41171792 0.78448647 0.46375576
-21.939457 8.8451109 49.468281 -0.71165317 0.63530523 0.29989499
-21.607973 8.6497192 51.336975 -0.70802432 0.60743594 0.36017096
-21.250288 7.6185713 53.045288 -0.72061771 0.54546618 0.42799148
-12.212241 10.097486 62.719051 -0.55461788 0.68261641 0.47585055
-7.7954259 10.722883 66.235123 -0.47806355 0.72523922 0.49546263
-23.525303 6.4556956 50.135296 -0.78220296 0.49475867 0.37864536
-10.012843 10.746387 64.4757 -0.47858748 0.75031954 0.45604232
8.5034504 11.866853 76.776718 -0.28111556 0.80828613 0.51734662
-25.852528 5.7656188 45.624702 -0.84138131 0.47938713 0.24953067
-25.198227 6.6145267 46.870541 -0.79569656 0.50949061 0.32754606
-15.27414 10.088375 58.687431 -0.58754146 0.70855641 0.39082327
-11.203759 9.5488377 64.69088 -0.58689249 0.62022132 0.52046388
-15.048974 8.4338846 61.829063 -0.59994602 0.62777215 0.49595058
77.307716 -1.9029814 86.977333 -0.31241438 0.86845678 0.38494161
-5.9558563 10.179276 69.356483 -0.47350374 0.70394778 0.52938807
-14.615817 5.8642354 64.69017 -0.65531188 0.51771438 0.55003464
78.654602 -2.74716 89.507164 -0.35376701 0.84525603 0.40048867
-20.364731 6.1802988 56.379669 -0.71488869 0.53091246 0.45504522
-7.7024522 8.6044235 69.376602 -0.56284428 0.58172399 0.58719981
-9.604167 7.3290324 68.635803 -0.58446425 0.55370861 0.59313428
-6.6704197 6.1568394 72.472542 -0.59791964 0.53615284 0.59584588
73.997803 -3.4662116 86.862122 -0.436326 0.75958443 0.48233926
87.39798 -3.1882784 95.552597 -0.017959012 0.98473668 0.17312202
19.014605 7.886435 85.074455 -0.22942178 0.56884527 0.78979784
85.513634 -3.3599715 95.152382 -0.17192875 0.93588728 0.30749878
-22.338335 1.7212151 57.329987 -0.8151992 0.36667642 0.44832873
-7.3341951 6.4857574 71.186287 -0.54892766 0.54950655 0.62985796
8.3513556 7.8421135 80.504921 -0.36744767 0.55988485 0.74263793
22.330593 6.1287265 87.089897 -0.096521735 0.52219802 0.84734458
72.186066 -5.1106267 87.043289 -0.42419919 0.78188974 0.4568409
75.034927 -4.5528736 89.49984 -0.46029997 0.76522797 0.45005557
71.044647 -5.4882584 86.415108 -0.56131774 0.82738572 0.018846191
82.585518 -3.9260714 95.085838 -0.27858886 0.87373298 0.39872169
19.223801 3.9501348 87.65744 -0.22133815 0.44604892 0.867208
70.086525 -6.5425315 87.373764 -0.75707757 0.6521309 -0.039481167
70.627419 -5.8263516 88.831284 -0.30158088 0.92997128 0.21024363
75.666794 -4.8381901 91.40448 -0.66457152 0.53103966 0.52568197
83.870415 -5.0577173 97.671654 -0.31840372 0.86353153 0.39106569
-16.224754 4.6912746 63.70512 -0.70988023 0.45227998 0.53991932
72.708038 -6.2101989 89.521278 -0.31219107 0.77538985 0.54891473
73.806709 -6.661541 90.055984 -0.61980611 0.53317195 0.57581949
75.615311 -6.310986 91.736984 -0.70197147 0.42532837 0.57125467
-18.492617 0.79573756 63.926933 -0.74810117 0.37287447 0.54891646
-7.8248925 3.8365841 73.122917 -0.56971431 0.45271033 0.6859147
-4.9536691 3.3182869 75.656281 -0.5810774 0.4198086 0.69721574
22.05427 3.6247766 88.305687 -0.18035528 0.44117701 0.87911028
73.958572 -7.1692352 91.811333 -0.43079975 0.85628593 0.28493151
79.139381 -6.4301238 96.315727 -0.55766565 0.64462054 0.52294677
15.11981 2.8740487 86.844566 -0.27375147 0.37509477 0.8856433
-19.861147 0.40994084 61.84285 -0.76973957 0.34225848 0.53885067
-34.011223 -11.049459 33.435162 -0.96929973 0.16253492 0.18450066
113.49843 -27.234755 110.1357 -0.28391096 0.81470829 0.50561339
-33.14045 -7.8123412 36.100655 -0.96644479 0.15045054 0.20820439
-18.974857 -1.5902475 63.999664 -0.77798396 0.25673327 0.5734362
-17.698662 -0.68615752 65.424187 -0.73997778 0.2728222 0.6148178
-11.460738 1.762731 71.167061 -0.67449993 0.34878144 0.65069288
114.55907 -25.655222 110.83509 -0.83020467 0.081856906 0.55141604
115.65283 -26.033701 113.20351 -0.89282173 0.020298084 0.44995257
88.270287 -6.8522186 106.40646 -0.34554654 0.75462234 0.55780172
107.44432 -14.615643 101.1088 -0.59444994 0.055987053 0.80218118
-34.721134 -12.048318 35.139454 -0.63627356 0.7512871 0.17528196
-33.469147 -11.171256 35.924938 -0.94927806 0.2400578 0.20308463
59.063042 -8.007616 89.881645 0.31819037 0.11412426 0.94113261
104.33233 -5.4309139 -0.51605761 0.9255017 0.20534897 -0.3182427
-10.631009 -0.25502321 73.119164 -0.6502049 0.33050755 0.68410403
-5.224174 0.16050199 77.409721 -0.56489348 0.3596268 0.7426734
23.508745 -0.089447334 90.561371 -0.20615979 0.31608221 0.92606163
105.86713 -2.175137 8.6143255 0.95518959 0.23770101 -0.17638336
-8.2211475 -2.0378742 75.89315 -0.62222475 0.31024668 0.7187373
-7.0829425 -3.3256536 77.545158 -0.58319592 0.25618854 0.77087617
13.199897 -2.1423995 88.175499 -0.32567611 0.24868192 0.91219097
37.14082 -4.8909225 92.867851 -0.011182013 0.20798561 0.97806793
112.15453 -26.704992 109.56542 0.42098513 0.87458223 0.2405771
33.800674 -5.0792956 92.888092 -0.023034677 0.20399302 0.97870129
109.70205 -18.604122 103.71595 -0.83609122 -0.021104271 0.54818439
14.940506 -5.4988637 89.859451 -0.29436928 0.22709353 0.92831844
31.827925 -6.7369919 93.135376 -0.077953205 0.18244793 0.98012048
110.49183 -19.684538 104.91077 -0.84721655 -0.0054229107 0.53122008
-9.8743896 -5.9231195 75.593887 -0.68122452 0.14531845 0.71750659
-0.88831139 -3.4161561 81.599274 -0.50244576 0.3153328 0.80505496
11.979778 -4.9831724 88.638321 -0.30689171 0.25264087 0.9176001
18.452671 -4.5635509 90.713501 -0.22904538 0.21625045 0.94909114
18.13678 -6.9379869 90.87561 -0.2243426 0.14138727 0.96419913
23.330999 -4.3979383 91.569679 -0.19668929 0.21198985 0.95727402
27.801414 -6.4713631 92.518532 -0.088012405 0.15221359 0.98442107
112.02399 -22.227297 107.21303 -0.84859627 -0.042950869 0.52729464
14.649102 -7.8653593 90.215027 -0.30062133 0.087058261 0.94976187
110.78558 -23.162422 104.56496 -0.79416597 0.13157235 0.59328669
115.2526 -25.331181 111.98733 -0.86861092 0.015929837 0.49523851
10.968691 -6.9339795 88.563126 -0.3544865 0.093594529 0.93036515
112.84684 -22.372034 108.37371 -0.84938693 -0.015465435 0.52754396
-4.3836265 -7.8796377 80.509407 -0.59021086 0.13931698 0.79513639
12.391808 -9.4538679 89.391701 -0.34058732 0.092389628 0.93566251
20.881294 -9.7380075 91.747429 -0.22524197 0.14559498 0.96336293
106.79303 -26.554724 129.95435 -0.17401172 0.71947485 0.6723659
105.18874 -25.082624 127.56807 -0.028989503 0.82490951 0.56452096
120.24705 -33.331284 140.8362 0.50540978 0.85352385 -0.1267204
117.54541 -24.898203 116.30738 -0.67740721 0.33009481 0.65738654
77.552399 -6.9979978 95.074791 -0.57556188 0.55423516 0.60129178
22.928349 -10.141956 91.946693 -0.18754928 0.12853986 0.97380847
75.893013 -0.29050979 82.554092 -0.08762385 0.83836597 0.538019
23.408085 14.019282 76.771744 -0.039948326 0.9845044 0.17074873
-16.468296 7.5421028 60.805916 -0.70993072 0.52067727 0.47422954
94.211449 -19.009594 118.74985 -0.44005105 0.43911538 0.78328335
114.48363 -27.589661 111.31898 -0.43212911 0.64300281 0.63230675
115.70934 -27.753508 112.66518 -0.84573221 0.055710576 0.53069127
116.92863 -26.381907 115.45719 -0.88718587 -0.025254812 0.4607206
117.93299 -25.901606 116.80875 -0.76965946 0.27331617 0.57699448
98.267677 -21.59651 122.14932 -0.42323878 0.43164107 0.79658955
117.33695 -27.755669 116.3842 -0.84820569 -0.0021442638 0.52966261
115.24093 -28.703133 113.15176 0.21184784 0.86081856 0.46272239
116.4075 -29.097952 114.08942 -0.74221247 0.34666109 0.57353884
117.05399 -29.703426 115.39578 -0.84980631 0.17524844 0.49710879
115.09064 -29.414831 114.11504 0.36941344 0.87430155 0.31485003
116.2472 -30.376347 115.93578 0.26897842 0.92556208 0.26643106
118.18676 -28.82439 117.34671 -0.84837991 0.015556952 0.52915907
119.13079 -30.227314 118.70181 -0.8381657 0.11794564 0.53251016
100.4501 -23.223454 124.2061 -0.43368241 0.47848716 0.76352441
101.89381 -25.253578 126.50079 -0.36121264 0.57546234 0.73373604
117.45341 -30.76182 117.03453 -0.44956711 0.72382849 0.52341354
118.29896 -31.702551 119.24329 0.033845317 0.89475459 0.44527373
119.96939 -28.818834 120.85487 -0.87007433 0.034974806 0.49167818
120.95512 -29.841085 122.70805 -0.86656725 0.050359808 0.49651286
100.29849 -27.577822 126.90681 -0.66760951 0.1715776 0.72447139
104.39563 -26.388895 128.81125 -0.40542716 0.55714458 0.72471976
104.91659 -29.936256 131.60562 -0.40490672 0.52777958 0.7466588
109.00659 -30.212648 133.81105 -0.41584563 0.57171595 0.70725769
114.66073 -31.262234 137.49414 -0.16826637 0.79600364 0.58143312
111.16602 -32.280869 136.99066 -0.41630679 0.60163575 0.68170595
113.46187 -32.353031 138.64053 -0.38713723 0.64209187 0.66169691
110.75314 -35.085812 138.97105 -0.6824581 0.22519368 0.69536948
130.89279 -35.616203 139.48888 -0.67153764 0.44350034 0.59358633
113.53357 -35.891457 141.70776 -0.51696503 0.52105838 0.67915052
129.85625 -37.890106 137.58022 -0.83138573 0.11603307 0.5434466
130.81239 -37.362247 139.88826 -0.85190749 0.0033583941 0.52368152
51.279453 14.759349 -5.0440617 -0.1436433 0.98374641 0.10774725
132.77835 -37.091694 142.08618 -0.66700733 0.45946833 0.58650661
-22.758095 13.273041 23.055115 -0.40331942 0.91502738 0.0076356442
-21.085369 13.849267 24.507265 -0.34764832 0.93761629 0.0040419679
-22.637505 13.399327 26.974089 -0.39986515 0.9161045 0.029331179
-21.197168 13.61843 30.29241 -0.3171421 0.94601136 0.066958979
-25.313219 11.619063 26.617229 -0.60685444 0.79395229 0.036980059
-23.980661 12.556568 26.407816 -0.56346381 0.82552779 0.031819422
-22.656164 13.069308 30.663736 -0.44704407 0.89032447 0.086451463
-27.578348 9.4681187 25.397757 -0.76150763 0.64661592 0.044654544
-21.542248 13.157066 33.851543 -0.40049756 0.91381878 0.067357644
-19.110544 13.875453 38.212723 -0.34216753 0.93250841 0.11553983
-18.470713 14.103244 35.792645 -0.16874596 0.98418474 0.053899057
131.6291 -38.062302 141.32784 -0.89857298 0.026611416 0.4380165
-24.83663 11.653639 30.421509 -0.62674528 0.77354449 0.093911074
-26.557562 10.497006 27.319252 -0.7044872 0.70622844 0.070279643
-24.115438 11.713824 33.406483 -0.61181438 0.77995658 0.13172303
-19.738796 13.922334 35.125935 -0.31603467 0.94675851 0.061403949
134.3289 -35.831741 142.74791 -0.32362837 0.83425009 0.44642061
-23.619787 12.386585 31.829319 -0.54069799 0.83650112 0.088947095
-20.001093 13.268544 38.806969 -0.41538092 0.8993265 0.13664056
-16.602779 14.399536 39.6082 -0.26712582 0.95560855 0.12432281
-21.900665 12.947567 36.305813 -0.44376519 0.88858825 0.11611803
-22.879395 12.099046 36.889225 -0.59088689 0.79394841 0.14317316
-15.568793 14.316796 42.430305 -0.26552272 0.95627147 0.12264851
-21.606686 12.337348 40.032532 -0.52446103 0.83289367 0.1767164
-18.535223 13.557445 41.928806 -0.31796965 0.93829584 0.13600075
-27.101599 9.3660831 31.042006 -0.7607277 0.64120442 0.10074873
-23.418941 11.621781 37.531898 -0.60184956 0.78284347 0.15790266
-19.665049 12.939264 42.727886 -0.48312986 0.85786694 0.17507108
-13.194197 14.35417 47.103603 -0.22982302 0.96388668 0.13455036
32.254757 14.186714 55.523914 0.047576807 0.99820268 0.03643962
-25.534176 10.716694 33.000462 -0.67392915 0.72699791 0.13150515
-24.631443 10.492674 38.033436 -0.675345 0.72129798 0.15374757
-15.040353 14.123706 45.141315 -0.29455012 0.94547355 0.13899595
-15.097086 13.49245 50.02647 -0.29595831 0.94123417 0.16274771
-12.436331 14.229653 48.830215 -0.21539827 0.96933818 0.11826703
106.83451 -22.292881 105.43654 0.50163263 0.83935767 0.20938812
-28.00514 7.7982659 32.390854 -0.82760602 0.54594618 0.13042687
-26.853374 9.1780853 34.588245 -0.76010704 0.63288361 0.14729474
-26.041443 8.9286184 38.018112 -0.74283028 0.64103699 0.19306669
-24.070639 10.283119 41.166363 -0.66321397 0.71671778 0.21555227
-15.899468 13.145045 49.316463 -0.39434013 0.89941955 0.18852122
-11.684566 14.118525 51.784466 -0.27530819 0.94827479 0.15805145
-2.2153378 -8.6846952 82.049782 -0.54656643 0.086930856 0.8328914
8.0011091 14.215736 58.007385 -0.0051007578 0.99909532 -0.042219996
115.64293 -36.87484 144.39859 -0.50576621 0.59718722 0.62254953
70.265739 13.971223 69.063217 0.23174976 0.91363478 0.33401132
-23.838762 9.1224184 44.278645 -0.6981144 0.66096073 0.27525839
-10.942277 13.981767 54.118393 -0.3860164 0.89411259 0.22705492
-10.427255 13.693041 55.597523 -0.29810312 0.92789316 0.22393934
96.822128 -4.2506671 -15.253529 0.81582576 0.24172832 -0.5253529
133.92441 -37.557949 144.42628 -0.75122559 0.31369168 0.58073902
71.128136 13.086642 70.884483 0.22582257 0.91338021 0.33873385
-25.60692 8.2130032 42.063087 -0.76986343 0.5874151 0.24950744
-16.736721 12.432269 50.268772 -0.45198277 0.85956961 0.23843589
-15.021436 12.891826 52.281948 -0.4117232 0.87464422 0.25589377
-14.121527 12.037839 56.137405 -0.45078883 0.8433401 0.29251829
