# .PCD v0.7 - Point Cloud Data file format
VERSION 0.7
FIELDS x y z normal_x normal_y normal_z
SIZE 4 4 4 4 4 4
TYPE F F F F F F
COUNT 1 1 1 1 1 1
WIDTH 714
HEIGHT 1
VIEWPOINT 0 0 0 1 0 0 0
POINTS 714
DATA ascii
6.5115275 -39.004395 11.112743 0.30452615 -0.6061759 0.73472071
13.985293 -72.051537 91.324814 0.24656637 -0.95100904 0.18651262
0.20980085 -70.745102 104.96948 0.17267688 -0.88966924 0.42269525
0.43055284 -69.446381 106.71234 0.29492635 -0.74241072 0.60153544
-72.340202 -27.777653 89.794937 0.50143766 -0.41434187 -0.75952685
-74.81356 -32.238434 91.00032 0.21948439 -0.6218009 -0.75179136
-70.481583 -32.628922 92.909637 0.39801025 -0.37050879 -0.83923244
49.966171 -9.0817261 -6.5775013 0.89035624 -0.094293512 0.44539255
48.193947 -8.1904297 -3.1433382 0.85120708 -0.12548633 0.50960732
49.860142 -5.8910155 -5.8379688 0.90941024 -0.15762404 0.38487351
49.320793 -12.292326 -3.3213158 0.22544748 0.82324475 0.52100056
46.302319 -11.908041 -2.592391 0.66061544 0.16023958 0.73342383
-5.8293595 -63.527596 114.00173 0.37329245 -0.36054969 0.85478455
18.436178 110.72702 -49.207874 0.61021006 0.47415617 0.63468069
17.768612 111.46076 -47.459789 0.59524518 0.78430307 0.17479086
15.761747 111.77268 -46.359516 0.40063688 0.90135068 0.16449009
-8.5476427 121.05432 -39.463654 0.21602517 0.9615522 0.16955981
-10.01582 121.30835 -36.851501 0.27406344 0.92481142 0.26384285
-9.256732 122.02146 -41.480721 0.18800098 0.27063993 0.94414496
21.483 -34.838886 31.245556 0.18468244 0.42641106 0.88547498
24.385426 -34.614506 33.352036 -0.75611126 0.54383248 0.36406302
-85.211731 -50.207573 -76.689247 -0.54778588 -0.76794714 -0.33194536
-4.0498815 -70.113152 96.449135 -0.41267991 -0.790806 -0.45201907
-3.2348866 -68.255417 93.640762 -0.5231455 -0.57826674 -0.62604028
-72.116081 -63.514763 -58.285374 -0.4219873 -0.89436126 -0.14847416
11.632545 -72.305672 88.413544 -0.08179982 -0.99065137 -0.10917288
-36.298782 -35.282017 25.593702 -0.043359704 -0.66716576 0.74364626
-40.549419 -32.3811 27.659697 -0.108054 -0.63484186 0.76504904
-100.99443 -28.704081 -93.557953 -0.70495903 -0.65145576 -0.28042501
16.074728 -36.474079 19.168375 -0.93259621 -0.29023075 -0.2145471
-38.922482 -59.251686 107.85436 -0.36346155 -0.71490854 -0.5973286
-123.82575 -4.7596889 -52.141827 -0.9547385 -0.29461944 -0.040912095
-66.211319 -45.196663 9.8479033 -0.2863844 -0.67491353 0.68005568
-122.31009 -4.2219987 -19.361019 -0.92826164 -0.34030494 0.1500759
-109.39742 -31.000429 -23.516533 -0.80275851 -0.54908854 0.23255242
-114.1468 -13.804893 -15.623195 0.17560907 -0.31856051 -0.93149376
-116.1963 -15.337541 -17.15523 -0.99607992 -0.022393432 -0.085576184
-116.18294 -12.467979 -16.820272 -0.079303131 -0.94313234 0.32281956
-114.52041 -18.43413 -16.268972 -0.66299427 -0.65565759 0.36131933
-110.93877 -25.144459 -18.901802 -0.85182923 -0.45033771 0.26754987
-107.33765 -18.661768 -2.1282036 -0.49034113 -0.67170238 0.5553211
-112.44211 -10.330138 -2.8067222 -0.83838451 -0.25090659 0.48389792
-114.48438 -10.893232 -8.2039471 -0.8593837 -0.34147957 0.38059345
-116.38938 -9.332221 -10.645153 -0.85687703 -0.32706252 0.39848697
-112.64144 -7.0210881 -3.3278151 -0.80730814 -0.28884345 0.51460952
-82.317383 20.545742 36.043865 -0.47284579 -0.034393582 0.88047373
-84.525558 15.709534 34.52351 -0.58420634 0.095980421 0.80590981
-104.91895 -27.368296 -11.574194 -0.69963384 -0.55117321 0.4546653
21.560326 -52.922878 55.469852 -0.9781872 0.18012699 -0.10346047
-85.847855 -24.606125 100.14833 -0.82416898 -0.069389962 0.56207699
-87.31031 -26.034893 96.415298 -0.87850004 -0.34770498 0.3276262
-104.53784 -6.0545001 11.550315 -0.7468065 -0.31376851 0.58636969
-104.35738 -14.265665 5.9802909 -0.70942599 -0.47414428 0.52144217
-104.74694 -15.708733 4.3912711 -0.67450356 -0.47430801 0.56575334
44.946003 51.779774 -87.352798 0.46867621 0.44410777 -0.76361698
49.020042 49.087051 -83.77961 0.80085105 0.30567813 -0.51497424
46.786358 49.298611 -85.878265 0.78459865 0.32044652 -0.53077215
43.548672 47.254124 -89.608025 0.40996772 0.32352796 -0.85279304
47.52557 41.143375 -86.088882 0.68316221 -0.051471747 -0.72845042
-8.5644703 86.342865 -65.631302 -0.086676128 0.27255061 -0.9582293
-13.404179 86.716927 -65.225006 -0.01690191 0.41583839 -0.90928149
-2.9058468 85.267494 -66.532639 -0.098876588 0.25694236 -0.96135527
5.695847 84.726608 -67.890312 -0.18117248 0.34820256 -0.91974527
3.7742238 82.795517 -66.25148 -0.26654625 0.43602273 -0.85955644
-5.0196905 82.294273 -67.103493 -0.026374642 0.63395691 -0.77291846
0.094515644 83.236275 -65.929047 0.010123133 0.29170999 -0.95645326
-3.967916 81.175652 -68.96946 -0.044500839 0.53515667 -0.84357989
-13.465311 82.194092 -67.501205 0.0010599486 0.49469939 -0.8690635
4.6418643 72.762192 -73.798431 -0.07735496 0.45522553 -0.88700956
-53.68327 78.504082 -66.613075 -0.062840708 0.45755282 -0.88695908
-31.321468 74.639244 -70.166061 -0.051895849 0.45353112 -0.88972831
-48.258751 75.695183 -68.392494 -0.064692177 0.45101845 -0.89016706
-4.1512551 69.234116 -74.878082 -0.057746727 0.45639822 -0.88789976
-45.196709 71.279037 -70.987129 -0.066284247 0.46430832 -0.88318974
-69.65609 77.876038 -65.783684 -0.058045551 0.45801252 -0.88704866
84.864792 -40.569485 -10.199474 0.57118744 0.60485339 -0.55488485
-66.642021 72.859032 -68.712822 -0.057937253 0.46709526 -0.88230681
-72.344437 73.822105 -67.700111 -0.055362936 0.46991172 -0.88097554
-29.816656 67.37059 -73.88578 -0.07035549 0.46062192 -0.88480371
-24.232868 67.705452 -74.449203 -0.085243836 0.46043995 -0.88358843
-57.205841 70.808517 -70.36657 -0.069318555 0.45290491 -0.88885999
-71.157143 70.416344 -69.72654 -0.051933385 0.4633944 -0.88462907
51.036648 56.689857 -77.970955 -0.26105371 0.4661915 -0.84529072
-12.756419 63.778225 -77.55323 -0.059399437 0.47874382 -0.87594295
91.301842 -46.886143 -8.1585407 0.59330642 0.42699975 -0.68239194
-114.40133 72.332664 -57.519268 -0.084608629 0.48017794 -0.87308103
40.290962 28.239744 -100.05805 0.1880347 0.4595843 -0.86800069
89.691612 -48.608345 -10.099995 0.50424415 0.31102273 -0.80560696
-44.753597 19.946543 46.076389 -0.027539963 -0.25605392 0.96627015
-77.410271 64.512306 -72.154045 -0.061899845 0.45605251 -0.88779753
-57.835232 63.635551 -73.960449 -0.059956323 0.46491313 -0.88332391
-66.936615 60.977329 -74.859024 -0.07192222 0.47096863 -0.87921309
82.334015 -50.883961 -14.105501 0.52477765 0.043140933 -0.85014546
-72.483047 62.004257 -73.876762 -0.061781507 0.46346617 -0.88395828
38.371315 23.819387 -100.72515 -0.061834786 0.44120014 -0.89527583
-95.578674 62.414913 -72.187111 -0.053698171 0.46214911 -0.88517499
-90.735863 61.220352 -73.176888 -0.061212983 0.46684715 -0.88221687
-3.5704982 51.931961 -83.983047 -0.11433933 0.45001057 -0.88567317
40.563477 25.786947 -101.57886 -0.24744 0.40713257 -0.87921357
-64.143311 58.550781 -76.420998 -0.061654828 0.46608353 -0.88258982
-83.663216 58.237785 -75.093864 -0.054397989 0.47569638 -0.87792587
-55.389194 56.637619 -77.90934 -0.068102352 0.46852514 -0.88082135
-78.217407 58.289249 -75.468925 -0.061422691 0.47095409 -0.88001674
-37.933178 54.37299 -80.291351 -0.11673214 0.46234679 -0.87898183
-26.24011 50.39027 -82.520493 0.0055100257 0.45808309 -0.88889229
-23.080584 50.66119 -82.901382 -0.12664424 0.48567003 -0.8649196
-64.528076 54.095959 -78.652512 -0.066264965 0.45547143 -0.88778079
-74.116425 58.084778 -75.903778 -0.048757039 0.4646306 -0.88416123
-23.581114 52.379795 -82.31929 -0.057113327 0.33625826 -0.94003642
-99.095787 59.814171 -73.423203 -0.058389384 0.47909734 -0.8758176
-56.977383 51.451733 -80.500458 -0.068607405 0.45681423 -0.88691252
-89.429779 55.380054 -76.259003 -0.066150166 0.4693791 -0.88051546
-0.43860659 46.023705 -87.49437 -0.080511868 0.45101207 -0.88887906
-73.352234 50.902489 -79.783051 -0.046238475 0.47584659 -0.87831199
6.6264839 47.396801 -87.438019 -0.078595445 0.46151736 -0.88364273
-67.879494 52.215652 -79.357262 -0.058823742 0.46615431 -0.88274568
42.170334 42.819363 -93.45118 0.047372371 0.45731103 -0.88804412
-24.370359 47.329304 -84.473541 -0.05806572 0.57026845 -0.81940365
-33.35582 48.444988 -83.112762 -0.11612166 0.48054233 -0.86924958
-99.83255 54.890358 -76.084572 -0.07038559 0.46559355 -0.88219529
-21.351543 45.70311 -86.128967 -0.062948182 0.48317403 -0.87325853
-90.362038 51.822998 -78.026123 -0.081676029 0.46704698 -0.88045222
-53.60363 48.23735 -82.352097 -0.073267527 0.46140656 -0.88415831
-61.658855 49.076786 -81.403252 -0.055570252 0.4691228 -0.88138282
-108.60892 52.365723 -76.814301 -0.074106351 0.44744599 -0.89123535
-28.348618 43.294598 -86.942162 -0.060575582 0.40904641 -0.91050082
-93.94516 51.567265 -77.977219 -0.039794542 0.47326529 -0.88002068
-24.670858 43.073486 -87.259964 -0.070487015 0.40713239 -0.91064525
-85.38649 49.978081 -79.483238 -0.04963861 0.4494462 -0.89192712
-36.110142 44.034729 -85.71566 -0.075136364 0.56316626 -0.82292062
-44.868687 44.679779 -84.079552 -0.088003293 0.29227656 -0.95227611
-77.402466 47.86882 -81.166946 -0.07084053 0.47124365 -0.87915367
-92.459587 47.670551 -80.229797 -0.042922113 0.47555035 -0.87864077
23.411539 39.929024 -92.927551 -0.080634117 0.47808269 -0.87460566
-20.191761 40.507809 -88.919395 -0.073706903 0.47738084 -0.87559968
-37.945374 -16.530931 -118.26536 -0.078204252 0.45116931 -0.8890053
-48.211704 42.355961 -85.566353 -0.0071568172 0.62280083 -0.78234768
-87.136337 47.314709 -80.636734 -0.050602123 0.4648976 -0.88391721
54.224072 29.716803 -92.007347 -0.012092946 0.46354958 -0.88598847
-65.126839 47.202244 -82.22924 -0.069877304 0.45446271 -0.88802075
-105.46449 51.724712 -77.210892 -0.018485498 0.44963461 -0.89302129
-51.98431 43.882336 -84.633659 -0.043528136 0.51290715 -0.8573398
-77.102272 43.796463 -83.261406 -0.058215272 0.45662555 -0.88775223
-67.770851 44.897106 -83.202415 -0.040562779 0.47031778 -0.88156438
36.842461 21.662214 -103.61861 -0.035275433 0.56093454 -0.82710832
-50.114597 39.899864 -87.978645 -0.079927191 0.40652341 -0.91013759
39.951557 35.796257 -96.414429 0.0055305376 0.48171338 -0.87631136
-65.080894 40.310745 -85.847687 -0.047626849 0.47938979 -0.8763088
18.573971 34.709896 -95.412567 -0.05497187 0.46322483 -0.8845343
-106.61768 45.768257 -80.371979 -0.058854476 0.46109807 -0.88539523
-113.84906 45.426136 -79.915497 -0.20707317 0.42094126 -0.88313597
-55.930481 41.251217 -85.908119 -0.037491832 0.46932966 -0.88222677
-71.526741 42.578762 -84.238861 -0.049782488 0.47347239 -0.87940067
-22.684 38.546368 -89.940872 -0.10966704 0.49486062 -0.86202443
-83.470245 40.403881 -84.55291 -0.059020329 0.46490461 -0.88339138
-87.927727 43.254707 -82.799728 -0.042057086 0.47456717 -0.87921393
31.229259 30.74242 -98.335373 -0.077937864 0.45744005 -0.88581842
-101.77155 44.34684 -81.330681 -0.060097001 0.45977417 -0.8860001
-108.61837 39.15707 -83.559807 -0.095973343 0.43489152 -0.89535373
-89.284966 -4.5815511 -108.30672 -0.10115466 0.44442374 -0.89008719
-28.97818 33.006859 -92.798973 -0.059987731 0.46823034 -0.8815679
-47.586834 36.516384 -87.964706 -0.13424088 0.34000134 -0.9307946
-113.67402 40.893326 -82.217224 -0.11991692 0.35284847 -0.92796439
39.245224 28.06382 -100.59132 -0.038515992 0.27085826 -0.96184838
32.489464 26.91604 -100.44242 -0.083619602 0.46529394 -0.88119769
-23.981979 32.750042 -92.987305 -0.021291396 0.48632708 -0.87351739
-49.760818 35.838451 -89.049149 -0.035917919 0.59637827 -0.80189955
18.742695 28.761866 -98.428215 -0.068195373 0.45424834 -0.8882612
-47.30946 33.011127 -90.979752 -0.085661009 0.45255595 -0.88761216
11.64327 28.611393 -97.851379 -0.073637255 0.4638961 -0.88282394
-58.939117 35.586872 -88.899117 -0.051666986 0.47631457 -0.87775558
-25.721373 30.383646 -94.084663 -0.068356432 0.42295489 -0.9035688
-93.269196 36.654461 -85.920258 -0.0593476 0.4704991 -0.88040245
-112.25457 36.661423 -84.61573 -0.16215195 0.49558142 -0.85329121
-34.336369 32.397869 -92.233681 -0.089934975 0.43153867 -0.89760023
-99.88929 37.056602 -85.355774 -0.065913506 0.46606851 -0.88228995
-11.964101 29.742971 -95.179253 -0.062672764 0.44901213 -0.891325
-45.144318 30.868168 -92.714233 -0.017356034 0.48734799 -0.87303537
-75.479431 34.996567 -88.027092 -0.058202334 0.46416169 -0.88383615
-4.3931737 24.155373 -98.887146 -0.074232027 0.46291679 -0.88328803
-66.062866 31.442547 -90.614761 -0.055335786 0.47323686 -0.87919551
-102.94662 34.002529 -86.567818 -0.066732794 0.46649313 -0.8820039
-108.69144 35.924114 -84.946838 -0.075967975 0.45971185 -0.88481295
-8.1514635 26.232931 -97.561043 -0.093822166 0.46281928 -0.8814736
-38.406528 29.93783 -93.218552 -0.10027381 0.47008151 -0.87690854
-52.556828 29.483404 -92.433525 -0.055563189 0.46931598 -0.88128042
-110.54385 32.106144 -86.924164 -0.069078781 0.47040552 -0.87974244
33.606041 23.006887 -102.58468 -0.07328403 0.45994094 -0.88492024
27.626245 21.237822 -102.95731 -0.077625126 0.46421805 -0.88231283
5.1141644 25.823425 -98.728676 -0.073804446 0.4541198 -0.88787848
1.2969983 27.416187 -97.635757 -0.062730394 0.47030231 -0.88027304
-75.522713 29.796583 -90.693977 -0.061965756 0.46878299 -0.88113713
-99.108246 33.418507 -87.342117 -0.075595021 0.46909329 -0.87990731
11.764129 24.132742 -100.22243 -0.076536395 0.46547836 -0.88174373
-13.88631 22.032627 -99.008492 -0.058796115 0.464201 -0.88377625
-70.939529 30.092573 -90.927773 -0.063519947 0.47197482 -0.87932074
-92.859451 32.92733 -88.133095 -0.05980378 0.47238335 -0.87936199
-80.844635 28.892778 -90.918808 -0.045765568 0.46674594 -0.88320655
-114.93204 33.950035 -86.515282 -0.052949309 0.46207952 -0.88525641
31.877205 18.847416 -104.57836 -0.08121112 0.471728 -0.87799627
14.805238 20.389103 -102.44041 -0.076231353 0.47058529 -0.87905532
-113.47865 32.814278 -85.942657 -0.02757596 0.47343388 -0.88039756
-94.889839 29.690077 -89.575012 -0.059848882 0.45486036 -0.88854945
23.762703 21.948782 -102.22276 -0.057266168 0.47312906 -0.87912995
-1.5541461 21.220928 -100.74866 -0.064480022 0.47109634 -0.87972188
-31.434464 24.476532 -96.550659 -0.052413773 0.49291724 -0.86849606
-35.67477 25.773521 -95.657143 -0.060183134 0.48558497 -0.87211537
-106.32339 32.3554 -87.410858 -0.084879324 0.47009104 -0.87852716
-112.84599 30.904818 -87.871101 -0.1538887 0.45679033 -0.87616259
11.776397 16.818949 -104.0944 -0.058953986 0.46337336 -0.88419998
-47.455902 25.576946 -94.833923 -0.072883874 0.47847888 -0.87506914
-55.228191 24.253292 -95.137596 -0.057063621 0.47204596 -0.87972516
-6.9107685 21.184223 -100.23079 -0.085785754 0.47094291 -0.87798274
-91.710304 29.161158 -90.009239 -0.065693587 0.44581532 -0.8927111
4.3466344 18.669952 -102.43944 -0.076828443 0.46931797 -0.87968063
-41.887676 24.143988 -96.155174 -0.063822426 0.46922323 -0.88077033
-50.827576 24.722363 -95.140465 -0.053484336 0.47410068 -0.87884468
-66.484421 26.255207 -93.261299 -0.057042256 0.4680413 -0.88186371
-88.53524 27.419155 -91.180695 -0.066974893 0.46610066 -0.88219303
-37.770496 19.959848 -98.67823 -0.070801705 0.47363296 -0.87787181
-73.460953 25.577532 -93.235329 -0.066849135 0.48069042 -0.87433857
-33.48967 21.814018 -98.206993 -0.058250532 0.47356382 -0.87883115
-13.890682 18.432945 -101.06091 -0.027836446 0.49926239 -0.86600357
-21.911396 21.038282 -99.268532 -0.053340103 0.49445808 -0.86756325
-92.697647 24.845722 -92.202385 -0.063482679 0.47968477 -0.87514144
22.000854 13.121385 -106.91695 -0.059952073 0.46182242 -0.88494396
-3.0478725 16.763353 -103.00414 -0.077403821 0.46543339 -0.88169181
-17.213369 17.043461 -102.14708 -0.048519589 0.40403983 -0.9134537
-22.177982 17.038208 -101.41654 -0.064264223 0.43802834 -0.89666116
-60.655148 19.740749 -97.159935 -0.060411621 0.47015947 -0.88051152
-60.277554 23.485107 -95.162262 -0.062146705 0.47416368 -0.87824064
-67.714455 21.231842 -95.855354 -0.053725358 0.46657729 -0.88284725
-86.140198 25.61693 -92.228798 -0.051839855 0.46342981 -0.88461602
-100.25126 27.775066 -90.19738 -0.067064196 0.46379745 -0.88339925
-31.557072 18.67564 -99.673485 -0.05169671 0.46418378 -0.88422894
-72.885201 19.11762 -96.783165 -0.047106352 0.46199605 -0.88563007
-108.07608 25.504421 -90.721077 -0.1161176 0.5021069 -0.85697454
-77.92672 24.354969 -93.463966 -0.066101514 0.47627631 -0.87680757
-88.589798 22.616072 -93.851936 -0.051906217 0.47882339 -0.87637538
-103.00996 24.070995 -91.907822 -0.042411465 0.47316933 -0.87995005
12.000894 12.408504 -106.47307 -0.071821488 0.4778581 -0.87549603
-18.412598 14.233618 -102.35799 -0.044819783 0.46195728 -0.88576895
-26.547537 17.151737 -100.82059 -0.077661179 0.47955537 -0.87406832
-34.891735 15.787655 -101.26952 -0.065100797 0.48291633 -0.87324321
-92.050858 21.649715 -94.098213 -0.067384809 0.46862754 -0.880822
18.043039 11.658223 -107.44134 -0.06638518 0.46846929 -0.8809821
-44.052727 18.960087 -98.687759 -0.066456802 0.46707833 -0.88171494
-63.752132 17.248877 -98.258896 -0.066382244 0.47636008 -0.87674081
-83.113052 19.537317 -95.722786 -0.06013862 0.47718421 -0.87674314
-98.765923 20.110626 -94.488449 -0.062646292 0.47481969 -0.87785065
-28.303583 13.63695 -102.68015 -0.068104111 0.47077891 -0.87961864
42.45903 20.733757 -100.53668 0.68197829 0.1211808 -0.72126341
-7.2909284 8.6111879 -106.84641 -0.11131952 0.49826533 -0.85984862
-42.229622 16.112677 -100.3922 -0.078127414 0.4694187 -0.87951243
-55.280132 18.623859 -98.081833 -0.059811961 0.47451812 -0.87821132
-34.974304 13.054937 -102.62751 -0.063317724 0.46403855 -0.88354921
-51.514572 16.111898 -99.833054 -0.062457021 0.49000189 -0.86948103
-22.99523 12.381316 -104.03667 -0.047772761 0.49051559 -0.8701219
-75.752007 20.47456 -95.848801 -0.074998342 0.47262147 -0.87806845
-78.89711 15.723918 -98.023735 -0.064835556 0.46798477 -0.88135499
-95.084343 15.799596 -96.823357 -0.056923043 0.46338809 -0.88432527
-57.037468 14.606259 -100.14627 -0.065777324 0.47593996 -0.87701452
41.188553 9.6626072 -102.505 0.46955612 0.25738043 -0.84455454
-31.63044 10.375645 -104.26105 -0.046029896 0.46644279 -0.88335282
-72.564148 14.801105 -98.864906 -0.034365095 0.46651855 -0.8838436
-83.960136 15.026931 -98.18663 -0.060627226 0.46531266 -0.88306767
30.60306 9.6774721 -107.84052 -0.10757032 0.46975556 -0.8762182
-64.321999 13.572021 -100.31054 -0.060033664 0.48020184 -0.87510127
2.1031921 8.162919 -108.01053 -0.069887377 0.48064345 -0.87412673
-27.439735 8.3324604 -105.53379 -0.088964202 0.47645116 -0.87468827
8.354682 3.5837567 -111.0229 -0.063949555 0.46345544 -0.88380969
-6.7237487 5.1267014 -109.08704 0.025220837 0.62564468 -0.77970034
-17.201267 5.3643498 -107.16903 -0.021697296 0.81744713 -0.5755949
-9.3862219 4.5761461 -109.49465 -0.027200129 0.83415127 -0.55086458
-14.56768 4.7329035 -109.04948 -0.036915392 0.78014082 -0.62451398
-52.807827 10.853168 -102.51921 -0.073487125 0.46011847 -0.88481104
-55.707157 5.4880981 -105.02617 -0.067520738 0.477328 -0.87612724
28.64098 9.9209175 -109.11874 0.14555109 0.36284524 -0.920412
-17.867096 4.7802982 -110.99085 0.021169707 0.91716826 -0.39793742
-43.80695 6.5407567 -105.51834 -0.0687415 0.48447078 -0.8721025
-1.0485182 2.9766309 -110.65105 -0.050032701 0.48762542 -0.87161809
-60.31012 9.2860861 -102.77647 -0.056433745 0.47158402 -0.88001353
36.90509 19.699488 -104.67976 -0.054836918 0.41165444 -0.90968871
24.183249 0.68869066 -113.90108 -0.093475193 0.633582 -0.76800799
19.065823 0.18934554 -113.40704 -0.081125282 0.47165012 -0.87804604
4.7220626 4.0807114 -110.49811 -0.06572818 0.47109124 -0.87963223
-4.664247 2.560183 -110.89564 0.086107954 0.46594018 -0.88061643
-12.868546 3.3866718 -112.15277 -0.059525717 0.44781467 -0.89214271
-23.330317 4.8314633 -110.74062 -0.43742353 0.57485175 -0.69152439
-38.676762 3.6997201 -107.57402 -0.072383426 0.47522208 -0.87688345
-68.067596 5.0382285 -104.60271 -0.060926627 0.46784192 -0.88170969
26.831181 4.196806 -110.76359 -0.17154202 0.50015378 -0.84877533
-57.533844 9.3739834 -102.98332 -0.058186099 0.46789488 -0.88186663
-12.120783 1.2623012 -110.97559 -0.10684137 -0.17392312 -0.97894621
-15.552858 3.5039623 -112.13132 -0.03276315 0.29137322 -0.95604825
-20.976574 3.597496 -111.45493 -0.18466996 0.12567331 -0.97473234
-31.412575 5.6546249 -106.79022 -0.040199108 0.4811413 -0.87572092
-64.024948 8.7151098 -102.882 -0.052514531 0.47231328 -0.87986493
-79.421135 8.9067869 -101.63568 -0.072713286 0.47568172 -0.87660688
25.771114 5.6766028 -111.09861 0.075014077 0.36922649 -0.92630702
18.11269 -3.5651221 -115.53803 -0.12846811 0.51137769 -0.84969926
-8.4785423 3.1867936 -112.76254 0.094562054 0.38486856 -0.91811448
-58.975494 4.1291566 -105.67804 -0.056403831 0.47415486 -0.87863296
-6.8512144 1.0777243 -111.55757 -0.0083627403 0.055180997 -0.99844134
-13.965783 -0.33587193 -111.44181 -0.057994395 0.43627554 -0.8979423
-19.308069 1.8655953 -110.28709 -0.12962687 -0.19443727 -0.97231221
-24.417494 2.3973002 -109.41138 -0.33195162 0.064460337 -0.94109136
-51.955605 3.9226997 -106.39413 -0.061705075 0.48100221 -0.87454528
-82.732445 7.7867517 -102.01808 -0.0573388 0.47178516 -0.87984711
-34.33223 2.2184548 -108.63396 -0.049098879 0.48384827 -0.87377352
-4.5971365 -2.4121127 -113.07035 -0.071984582 0.44439 -0.89293653
-39.667095 -0.95005059 -109.85452 -0.07147143 0.46355933 -0.88317871
-75.63089 4.2936316 -104.48701 -0.066555709 0.46858889 -0.88090569
-21.675406 -2.3037591 -111.83356 -0.066582747 0.47079214 -0.87972802
28.921322 3.7052653 -113.29742 0.22309823 0.35497272 -0.90786648
-22.584085 0.56805301 -110.3845 -0.082985289 0.42860416 -0.89967328
-67.300194 0.68981546 -106.91904 -0.058715507 0.46355742 -0.88411933
-80.809448 3.0769846 -104.72814 -0.069928817 0.46377939 -0.88318658
24.644699 1.60537 -111.6148 -0.11232905 0.64235306 -0.7581324
23.079184 2.8167171 -112.46296 0.0073613022 0.45004222 -0.89297694
-32.391243 -0.93451041 -110.52325 -0.059295919 0.46848184 -0.88148099
-49.466652 1.1110977 -107.87384 -0.047834408 0.49419713 -0.86803281
-57.915916 -1.3436455 -108.6468 -0.076704517 0.46574199 -0.88158995
-63.08746 3.7083633 -105.67061 -0.058250044 0.46649146 -0.88260555
0.06877774 -6.0205607 -115.43772 -0.07981389 0.46941826 -0.87936133
-37.22319 -6.4810462 -112.8866 -0.065715723 0.47026011 -0.88007778
-53.731941 0.98510253 -107.83743 -0.075313248 0.48247671 -0.87266493
-16.38949 -3.4446714 -113.06547 -0.068383299 0.47013041 -0.87994379
35.618626 16.658323 -105.57759 0.012382515 0.37262297 -0.9279002
4.8379583 -6.5508947 -116.21511 -0.061497692 0.46996269 -0.88054132
-27.00128 -5.2916865 -113.13785 -0.064562045 0.47202998 -0.87921524
-40.427547 -4.3372326 -111.7074 -0.065135479 0.47689936 -0.87654114
-53.387424 -3.6203318 -110.28024 -0.082042776 0.46264759 -0.88273787
-78.178665 -1.0050979 -107.06359 -0.078822158 0.46443531 -0.88209236
-85.670418 0.39328635 -105.70802 -0.071995243 0.46217525 -0.8838613
-0.82030892 -8.3527784 -116.62814 -0.060758688 0.45316294 -0.88935459
-13.842869 -7.1278334 -115.01962 -0.056007389 0.46957523 -0.88111424
-31.608217 -4.152174 -112.15902 -0.067224987 0.46230769 -0.88416761
-65.906876 -3.2462168 -109.10147 -0.064493343 0.47474185 -0.87775892
27.411814 -2.7526646 -111.65234 0.1799679 0.3588967 -0.9158628
36.684731 15.425908 -106.94325 0.25731346 0.43188956 -0.86444271
-9.5345411 -5.7907281 -114.57184 -0.05651655 0.47767457 -0.87671709
-19.783857 -6.7859974 -114.4358 -0.071801238 0.46784094 -0.8808912
-50.527035 -6.2294583 -111.73993 -0.05754583 0.46236894 -0.88481832
-25.813622 -10.076305 -115.82081 -0.062470976 0.46577445 -0.88269562
-47.225216 -8.2090826 -113.22246 -0.078350723 0.47396183 -0.87705266
-76.684776 -4.7472363 -109.20389 -0.06393294 0.46797657 -0.88142532
-18.641302 -10.100451 -116.43624 -0.066636808 0.46223566 -0.88424975
-82.297356 -2.1419942 -107.27483 -0.059114877 0.48543045 -0.87227446
-14.842089 -21.255827 -122.32072 -0.071935825 0.45326689 -0.88846737
-9.4021578 -11.263514 -117.72558 -0.059357934 0.46305045 -0.88434207
-22.421577 -12.82503 -117.34201 -0.069008939 0.45625761 -0.88716787
-70.452629 -4.0348854 -109.23811 -0.056851547 0.464663 -0.88366067
-63.713306 -5.1298232 -110.35466 -0.061396807 0.47955847 -0.87535942
-78.782158 -7.7723379 -110.74022 -0.062730096 0.46812627 -0.88143218
-16.23197 -14.247776 -118.58412 -0.067346595 0.46108192 -0.88479817
-39.530758 -9.4631758 -114.43878 -0.062186982 0.4706057 -0.88014942
-74.709785 -8.1917953 -111.08688 -0.05051906 0.46571723 -0.88349038
-30.331364 -9.7156143 -115.14126 -0.063495912 0.46538544 -0.88282764
-58.386677 -9.4384069 -112.93335 -0.0682327 0.47039926 -0.87981176
-35.125954 -13.104383 -116.65244 -0.05772743 0.46601054 -0.88289398
-66.761452 -7.7469192 -111.48071 -0.075284138 0.47112995 -0.87884516
41.623077 14.531015 -102.71837 0.69711262 0.025151009 -0.71652031
-29.140236 -14.128275 -117.64072 -0.058050808 0.4744789 -0.87835062
-82.771927 -7.5251164 -110.21693 -0.076695643 0.43572947 -0.89680409
-40.90303 -14.109581 -116.87952 -0.05930113 0.46481717 -0.88341856
-71.200333 -10.661783 -112.60005 -0.069396771 0.47533867 -0.87706172
48.019485 44.523121 -85.876465 0.58080083 0.032025423 -0.81341547
-12.310177 -15.998302 -119.88056 -0.055748906 0.44750389 -0.89254266
-19.172974 -16.426563 -119.51923 -0.074475683 0.44978195 -0.89002782
-75.435791 -13.656532 -114.05902 -0.069678076 0.45105967 -0.88976979
-29.547077 -19.468943 -120.64137 -0.05593361 0.46100497 -0.88563293
-66.424461 -12.879038 -114.34858 -0.070972696 0.46296918 -0.88352835
-70.899414 -15.932434 -115.53017 -0.079734407 0.45277369 -0.88805312
32.921902 13.072962 -107.11684 -0.1304407 0.41539627 -0.90023953
-34.767109 -17.024664 -118.83322 -0.079370156 0.47147197 -0.8783021
-60.442062 -14.723062 -115.70998 -0.072414666 0.46077916 -0.88455564
-63.875481 -16.013103 -115.99368 -0.063281655 0.44932058 -0.89112657
-48.108772 -17.624641 -118.13339 -0.088611543 0.46272159 -0.88206387
-61.234055 -20.271616 -118.42531 -0.057874192 0.50939226 -0.85858607
-37.106312 -21.87612 -121.05612 -0.084549285 0.45597753 -0.88596606
-54.047012 -21.083721 -119.27036 -0.054770172 0.49758059 -0.86568683
47.201424 45.609047 -87.190697 0.81313533 0.041829076 -0.58056968
-47.82016 -22.149113 -120.42943 -0.082025833 0.4810833 -0.87282914
-86.367447 -21.182808 -109.69788 -0.060638431 0.50896508 -0.8586486
-82.270439 -23.40517 -109.91644 0.46261716 0.63540262 -0.61826283
-83.495468 -24.905714 -111.37503 -0.082496554 0.27039433 -0.95920873
45.699268 45.468647 -89.036194 0.70803535 -0.037241157 -0.70519441
41.899719 35.784664 -95.154053 0.21668637 0.52107692 -0.82554579
71.150589 -33.628216 -20.609438 0.70818245 0.49430597 -0.50412232
74.330276 -35.053226 -17.697714 0.70925105 0.46324813 -0.53137958
74.52021 -38.362576 -18.980112 0.7336306 0.40617669 -0.54479963
77.328636 -38.475731 -16.153397 0.6605401 0.39005682 -0.64151573
80.232475 -40.798092 -14.54532 0.64712936 0.39876392 -0.64977771
78.225266 -41.520737 -16.360325 0.71960217 0.44753367 -0.53092963
75.879364 -39.812252 -20.332634 0.68258142 0.72509068 -0.091247275
76.368233 -46.691685 -16.583572 0.43278205 -0.040314354 -0.90059674
57.354633 -20.832436 -23.614954 0.78157026 0.42751175 -0.45429251
59.846443 -23.634102 -22.560402 0.72794342 0.43721518 -0.52814895
-25.796396 -17.132061 -119.39738 -0.041517034 0.46698913 -0.88328785
58.813641 32.310307 -95.605156 0.98831803 -0.12635259 -0.08522094
56.219952 -31.280209 -27.157146 0.47279689 -0.15790296 -0.86690813
-72.473816 10.437375 39.79546 0.72132385 0.66872978 0.18025625
-108.30672 6.4801083 -99.553505 -0.62222624 0.070964254 -0.77961433
-110.0518 8.0539951 -97.452644 -0.84248489 -0.1682177 -0.51178324
-112.7893 7.9749908 -95.415169 -0.71481895 0.13625179 -0.68590766
7.8352165 -0.22978517 33.585789 0.45637882 -0.32064918 0.83000153
-109.8242 6.5118651 -96.429115 -0.60967588 0.091119103 -0.78739607
-111.4024 5.3800969 -97.027748 -0.60691202 0.052511722 -0.79303241
-110.51479 3.2981043 -96.331818 -0.77992475 -0.19536942 -0.59459913
30.548601 -23.845562 8.2544537 0.59852016 0.12389795 -0.7914688
-108.301 -0.49528861 -98.110764 -0.75156271 -0.13032877 -0.64665896
-108.53822 1.1278036 -98.879044 -0.65902376 -0.087396212 -0.74702716
-111.06436 74.372383 -59.226547 -0.74583685 0.52087009 -0.41523698
51.457355 -21.25514 -31.342028 0.89803171 -0.29634228 -0.32514647
83.888687 -50.829369 16.217422 0.57955456 0.78406465 0.22216916
92.401566 -57.120453 16.4991 0.29950064 0.43009469 -0.8516559
-61.219845 -1.2356201 38.08358 -0.57036132 -0.11434522 0.81339604
1.5243523 -14.090555 -119.70445 -0.050221395 0.44898325 -0.89212775
-112.1675 4.9542389 -94.591339 -0.66852355 0.034974031 -0.74286819
57.441071 -23.21125 -25.600357 0.81243926 0.39071408 -0.43276417
47.81361 30.454084 -90.267746 -0.35976484 0.37443614 -0.85461497
68.174164 -31.308758 -22.425356 0.72649419 0.5618723 -0.39560804
76.67025 -36.253914 -14.994653 0.7046864 0.43532205 -0.5602783
57.894726 -34.524151 -25.185429 -0.033950556 -0.038578253 -0.99867868
56.105446 -35.055206 -26.361401 0.46011984 -0.3024382 -0.83475798
53.031475 -32.203701 -28.54073 0.37442765 -0.24302916 -0.89484119
52.65234 -38.665722 -26.571941 0.32423967 -0.37162063 -0.86992341
82.164093 -40.736221 -12.615991 0.60877842 0.48910213 -0.62463421
48.331215 -36.486752 -28.542236 0.22405015 -0.39721158 -0.88995761
49.642612 -40.943169 -25.820261 0.14990523 -0.48286533 -0.86276853
21.819405 99.771851 -52.168098 -0.13579048 0.45701107 -0.87903452
26.377062 93.825333 -56.450134 0.80209124 0.55772865 -0.21351451
42.554993 70.521523 -72.813255 0.78491479 0.54258728 -0.29917878
-105.72795 18.186966 -94.837006 -0.0770135 0.45736811 -0.88593638
-29.055605 111.70714 -50.960423 -0.068220258 0.44036853 -0.89522153
-39.65612 111.25255 -50.522278 -0.060597006 0.44195423 -0.89498848
-44.788639 108.3365 -51.642769 -0.062632024 0.46783325 -0.88159472
-22.546442 106.03182 -54.513828 -0.075663097 0.44499338 -0.89233178
-37.595833 106.5909 -53.068596 -0.05853783 0.46457541 -0.88359666
-32.32597 107.3654 -53.039341 -0.060666285 0.46037486 -0.8856492
-54.632427 104.99031 -52.600853 -0.06774535 0.46570584 -0.8823427
-46.556324 102.2834 -54.701862 -0.064160369 0.4561764 -0.88757336
-10.816416 105.39149 -55.812813 -0.058677386 0.47520387 -0.87791693
-30.326246 101.44531 -56.288738 -0.062471282 0.46856669 -0.88121659
-58.114471 99.953621 -55.136196 -0.05863747 0.47211206 -0.87958616
-6.3406587 102.1854 -57.750351 -0.051874895 0.4689697 -0.88168955
-38.397198 103.2802 -54.743912 -0.060375735 0.45994338 -0.88589323
-0.17566508 100.36257 -59.043934 -0.063460797 0.46274164 -0.88421875
-41.518433 99.51265 -56.504639 -0.058551665 0.46853694 -0.88150138
-9.9349527 100.96426 -58.099312 -0.061201453 0.44804713 -0.8919127
-22.182728 96.98819 -59.313572 -0.062519081 0.46371725 -0.88377464
-51.526314 97.718002 -56.696598 -0.062079463 0.46762818 -0.88174254
-40.49704 95.323692 -58.804291 -0.062396798 0.46561277 -0.88278615
-4.0918512 97.345718 -60.436951 -0.059755445 0.46705246 -0.88220823
-8.8420687 98.946274 -59.202972 -0.068827376 0.46884355 -0.88059556
-35.7047 99.160759 -57.108421 -0.061945781 0.47695166 -0.87674385
-25.143158 -21.496058 -121.76937 -0.035489295 0.45125389 -0.8916896
2.9159749 97.434792 -60.928856 -0.065226786 0.46517783 -0.88281089
8.6725607 96.796196 -61.603294 -0.06122845 0.46692905 -0.88217252
7.2779698 93.02108 -63.549725 -0.055146303 0.45638058 -0.88807416
-26.911995 95.294838 -59.751801 -0.064723499 0.48340303 -0.87300187
-58.616688 94.882072 -57.679035 -0.058348108 0.44821516 -0.89201939
-87.694458 -10.06406 -110.62992 -0.034688614 0.51092547 -0.85892487
2.967448 92.360886 -63.49239 -0.068803221 0.46364486 -0.88334566
-23.709332 92.492966 -61.556385 -0.054940619 0.45556608 -0.88850498
-2.5748017 91.049461 -63.841499 -0.076011717 0.45383435 -0.88783818
-17.345655 92.996338 -61.668633 -0.065343112 0.45893183 -0.88606542
-88.559723 88.116882 -59.151108 -0.042387061 0.46388793 -0.88487923
5.9461842 87.69873 -66.240784 -0.058050849 0.47989672 -0.87540233
-16.171839 87.683006 -64.55304 -0.066030063 0.46713182 -0.8817187
-58.902668 89.572838 -60.380215 -0.065856338 0.46466392 -0.88303483
-63.344433 88.916924 -60.524296 -0.060996924 0.46465611 -0.88338792
-66.488152 85.911865 -61.844395 -0.064569376 0.46874464 -0.88097066
-6.2073188 89.744019 -64.19838 -0.070066489 0.43123141 -0.89951658
-74.159828 87.959778 -60.301029 -0.066576459 0.45998266 -0.88542849
-80.144592 83.719597 -62.188511 -0.050383687 0.46924707 -0.88162839
-75.473846 83.372108 -62.512077 -0.055368032 0.46096724 -0.88568819
-59.060673 84.374687 -63.173611 -0.061511148 0.4672085 -0.88200486
-58.891804 81.315292 -64.775375 -0.070234455 0.45510161 -0.88766533
-38.321064 79.574806 -67.178902 -0.066099666 0.45740423 -0.8867988
-90.680748 81.885735 -62.24358 -0.079442427 0.45314452 -0.8878901
7.8084316 79.457916 -70.689819 -0.082195856 0.48444241 -0.87095308
28.31748 83.596107 -70.187576 -0.10627196 0.45614639 -0.88353652
-44.359772 82.847908 -64.984276 -0.06307786 0.46363556 -0.88377786
-25.425013 80.632072 -67.507896 -0.036461923 0.44290289 -0.89582783
17.752993 80.923073 -70.52198 -0.06368731 0.45268148 -0.88939494
-8.3419657 81.656204 -68.142845 -0.048152171 0.6313495 -0.77400208
-93.301102 80.288673 -62.906464 -0.068678945 0.46870226 -0.88068235
15.48897 75.081917 -73.58387 -0.063642994 0.47162241 -0.87950093
-16.820082 78.964066 -69.12001 -0.080794595 0.44405091 -0.89235145
-95.85627 76.990051 -64.4244 -0.067735292 0.47525603 -0.87723643
-7.0646095 76.377563 -70.891388 -0.073799573 0.46719441 -0.88106924
10.088299 -20.909624 -116.94771 -0.029377 0.36492521 -0.93057323
-20.974464 77.037323 -69.431999 -0.072380356 0.45739633 -0.88631243
-34.960728 77.363159 -68.587593 -0.065814495 0.45108223 -0.89005244
-80.351242 75.031586 -66.604561 -0.056864824 0.44887459 -0.89178354
21.453293 75.49044 -73.753738 -0.082874194 0.46416852 -0.88186133
1.6080753 74.905754 -72.754814 -0.055396084 0.45108828 -0.89075851
-1.8355743 76.894051 -71.091606 -0.070704177 0.49323827 -0.86701608
-18.959063 73.073967 -71.93943 -0.071617819 0.49347395 -0.86680698
-75.415222 77.650406 -65.634117 -0.051802009 0.46099073 -0.88589168
-35.23053 73.36232 -70.566849 -0.070757151 0.46230125 -0.88389528
26.992744 74.359459 -74.847282 -0.071564108 0.46043238 -0.88480538
8.8656225 75.24202 -72.992584 -0.08011876 0.45561844 -0.88656241
-40.140011 72.055878 -70.811295 -0.064811774 0.45810121 -0.88653409
-98.962555 74.385139 -65.638153 -0.055880528 0.47216693 -0.87973619
18.985937 71.054565 -75.960892 -0.057639878 0.47077829 -0.88036668
-68.011429 69.264221 -70.411301 -0.056458753 0.44638401 -0.8930586
30.126829 70.633575 -77.094727 -0.073425196 0.45548865 -0.88720846
-53.831772 73.766273 -69.130844 -0.050487231 0.46239093 -0.88523763
-77.014572 71.352364 -68.795776 -0.066541031 0.45950046 -0.88568145
-17.267956 69.669998 -74.038246 -0.05606031 0.45553449 -0.88845122
9.9535446 70.704941 -75.397552 -0.081115633 0.4540675 -0.88726717
-40.822182 66.918594 -73.528831 -0.053621743 0.4720861 -0.87992013
-55.746399 66.758568 -72.489655 -0.069503546 0.44895196 -0.89084864
11.164229 65.025146 -78.271027 -0.080132626 0.46674013 -0.88075668
-35.586063 70.115387 -72.328316 -0.054381855 0.45588022 -0.8883782
23.81407 69.125786 -77.327835 -0.072961181 0.47083992 -0.87919641
15.75149 68.135696 -77.327438 -0.082184084 0.46262464 -0.8827368
45.940945 59.867649 -79.038773 0.68366092 0.4202292 -0.59667003
35.753521 66.364876 -79.735474 -0.10519189 0.49085316 -0.86486864
31.450783 65.879257 -79.71315 -0.058528043 0.48051852 -0.87502933
-45.410851 66.686462 -73.441452 -0.060261235 0.46347806 -0.88405693
-69.547638 64.924843 -72.494934 -0.054461747 0.45863771 -0.88695282
-6.7952223 65.834671 -76.567093 -0.050691172 0.44773436 -0.89272857
21.789946 65.893005 -78.899261 -0.068305038 0.47712046 -0.87617946
-29.328295 63.267006 -76.241867 -0.080774456 0.46225157 -0.8830623
-37.488716 66.670677 -73.8908 -0.050048403 0.45450142 -0.88933885
39.123482 65.164299 -81.111519 0.064849876 0.51240325 -0.85629284
5.9816427 66.95826 -77.027206 -0.070014931 0.46350926 -0.88332164
2.3430219 67.332359 -76.532402 -0.081800066 0.47433868 -0.87653387
-40.639095 63.747608 -75.350815 -0.046497859 0.43991542 -0.89683467
13.676685 61.541904 -80.572723 -0.092837229 0.47090778 -0.87728399
-44.323322 63.192364 -75.208954 -0.058890149 0.44842795 -0.89187688
-63.011879 63.221455 -73.896301 -0.055491272 0.47404087 -0.87875253
2.0488021 63.518871 -78.347771 -0.089755341 0.45985752 -0.88344496
-48.076862 61.024654 -76.077919 -0.061103337 0.46002811 -0.88579935
-118.0406 57.486095 -65.477913 -0.91911322 0.31343448 -0.23872511
-56.676548 59.681141 -76.174736 -0.057198707 0.47131363 -0.88010895
24.633472 63.92094 -80.269684 -0.07518395 0.49105504 -0.86787802
19.220705 63.678593 -79.899643 -0.073491767 0.47442228 -0.87722427
20.053579 59.989475 -82.093513 -0.085680023 0.48725432 -0.86904669
-37.700333 59.79295 -77.249214 -0.067620523 0.46243241 -0.88407218
-42.368454 60.615501 -76.538872 -0.068188332 0.40082151 -0.91361505
-50.925629 57.858543 -77.600182 -0.067598641 0.48356444 -0.87269461
-12.474493 60.447922 -79.004433 -0.044294056 0.4404414 -0.89668798
-71.129494 55.710407 -77.214981 -0.062467899 0.46617422 -0.88248473
8.9324484 61.8564 -80.03141 -0.069932424 0.47323903 -0.8781538
-20.298073 58.386131 -79.646942 -0.11660192 0.43898049 -0.89089847
-61.061916 55.771156 -77.981628 -0.053514488 0.45968232 -0.88646966
18.146765 57.149967 -83.421333 -0.10162906 0.45611238 -0.88410008
4.0508494 60.51955 -80.272224 -0.091084592 0.48237783 -0.87121487
-15.763367 58.915947 -79.675125 -0.053322747 0.45379904 -0.88950723
35.710052 59.355709 -83.974701 -0.083340012 0.46200582 -0.88295245
13.62834 56.37233 -83.183403 -0.084053442 0.46859542 -0.87940508
-23.277981 61.545589 -77.492172 -0.074954174 0.45262608 -0.88854462
9.5852785 53.946476 -84.222801 -0.065404892 0.46872911 -0.88091725
-21.925238 53.082584 -81.819588 -0.065033861 0.42309928 -0.90374643
-4.0669866 54.464989 -83.294785 -0.027084665 0.43358392 -0.90070605
29.032598 56.17358 -84.646591 -0.069200844 0.44089967 -0.89488482
-49.828476 54.277988 -79.647057 -0.071340919 0.4365072 -0.89686781
1.1339929 53.178596 -83.833717 -0.075224996 0.4801271 -0.87396753
-7.4360261 54.905197 -82.953033 -0.077545241 0.43527156 -0.8969534
-34.323414 50.87215 -82.125847 -0.065910034 0.3857899 -0.92022926
-10.232995 51.824207 -83.602867 -0.078342646 0.43726483 -0.89591402
30.997217 52.383495 -86.753487 -0.072226487 0.47211277 -0.87857437
10.239398 51.108368 -85.878433 -0.080011413 0.46935782 -0.87937558
-102.58742 52.106247 -77.102402 -0.068789937 0.4533135 -0.88869274
16.984331 49.860691 -87.151169 -0.080192007 0.46551719 -0.88139832
40.160606 51.053288 -88.586723 -0.039390713 0.48254666 -0.87498403
-5.9388418 51.6534 -83.318817 -0.060081426 0.36344025 -0.92967814
32.220867 49.793789 -88.299721 -0.090421662 0.47869307 -0.87331367
-37.338596 49.599575 -82.328018 -0.083702981 0.41036004 -0.90807402
-39.919628 49.417343 -82.730721 -0.0093768789 0.34445697 -0.93875521
-8.2395849 45.605042 -87.062767 -0.08867792 0.45360714 -0.88677889
34.831863 46.632114 -90.355919 -0.092979819 0.4644599 -0.88069952
-5.5455818 49.719769 -85.26535 -0.065980814 0.50895411 -0.85826117
-14.526079 48.526932 -84.786064 -0.054136205 0.45330256 -0.8897112
-73.349442 45.625305 -82.590782 -0.039071962 0.4626323 -0.88568884
21.803276 51.466751 -86.720001 -0.068528011 0.45950818 -0.88552594
-39.595078 47.123516 -82.721329 0.019848697 0.49558374 -0.86833334
52.114372 46.477119 -83.036667 -0.16560367 0.44024095 -0.88247567
-14.880073 43.566448 -87.437668 -0.061567891 0.48867062 -0.87029332
51.778717 42.668083 -84.961685 -0.34640568 0.43574959 -0.83073783
25.181717 46.769165 -89.3909 -0.066675767 0.46206182 -0.88433772
30.665459 44.869705 -90.852982 -0.079669073 0.47054988 -0.8787694
26.951281 42.416534 -91.710014 -0.078301772 0.47465351 -0.87668294
12.474457 46.127495 -88.586792 -0.070683457 0.45907092 -0.88558328
8.4282827 43.127068 -90.002335 -0.073417328 0.46958008 -0.87983197
0.4933764 43.013321 -89.170654 -0.083657295 0.4823752 -0.87196076
-41.453442 42.105301 -86.920441 -0.13485056 0.52050942 -0.84314013
-110.09123 42.864677 -81.545074 -0.1148858 0.44806379 -0.88658899
44.526794 41.447144 -93.138962 0.37316751 0.33983329 -0.86328399
20.008276 42.643238 -91.07859 -0.078551292 0.45679185 -0.88609868
-24.721886 40.237038 -88.261841 -0.080755211 0.45651311 -0.8860442
-11.494065 41.017902 -89.10965 -0.058892004 0.4872193 -0.87129164
-0.4935537 38.523365 -91.567581 -0.085939579 0.45649496 -0.88556582
-59.273266 39.030373 -86.856071 -0.051018421 0.49298078 -0.86854309
36.415474 39.274597 -94.289635 -0.063230552 0.46412921 -0.88350779
-81.341904 37.246189 -86.406372 -0.061932858 0.46796212 -0.8815757
-72.099686 38.180668 -86.612869 -0.055558115 0.46635076 -0.88285351
27.479225 38.463215 -94.063705 -0.075681746 0.46779266 -0.88059199
12.109215 38.371052 -92.691254 -0.068964802 0.47128645 -0.87927985
6.8041248 36.949863 -93.034111 -0.076375812 0.46222761 -0.88346606
-88.060417 38.411633 -85.395348 -0.049121838 0.46930867 -0.88166684
-0.25369152 33.403023 -94.224411 -0.076679274 0.47644031 -0.8758567
-104.84064 37.56258 -84.605667 -0.076768465 0.46103024 -0.88405752
34.820721 11.690196 -108.95138 0.13442658 0.28638393 -0.94863778
-5.3724937 35.847519 -92.364586 -0.082168907 0.46919116 -0.87926555
-25.341316 37.092903 -90.224655 -0.061543413 0.51659441 -0.85401559
-82.333931 33.5154 -88.318947 -0.047471017 0.4764033 -0.87794441
5.1998239 31.375189 -95.747635 -0.081560306 0.46920529 -0.87931466
31.903316 35.714508 -95.887314 -0.072868846 0.46084219 -0.88448542
-61.726353 34.356457 -89.218697 -0.064921618 0.46789098 -0.88139844
13.370992 31.631166 -96.349304 -0.097665936 0.45898804 -0.88305801
-6.9136462 30.28244 -95.445244 -0.079192191 0.48442852 -0.87123913
28.408716 34.685616 -95.914581 -0.072024286 0.4558439 -0.88714081
24.12969 33.812637 -96.233444 -0.080367699 0.45424551 -0.88724411
39.92178 30.909473 -98.92868 -0.052339904 0.45271868 -0.89011592
-62.871502 28.167336 -92.450386 -0.053202424 0.46775356 -0.88225627
-85.696449 31.116678 -89.560448 -0.055285245 0.46508673 -0.88353711
-14.795186 31.737532 -94.439331 -0.085814007 0.49434388 -0.86502028
-28.448553 25.7759 -96.141975 -0.082094729 0.46908712 -0.87932795
-33.604725 29.1245 -93.956192 -0.056093618 0.46527413 -0.88338745
-82.733467 25.676346 -92.479401 -0.057582989 0.45730877 -0.88744181
-96.292168 24.992504 -91.920776 -0.059737872 0.47128469 -0.87995577
-4.9176407 -28.669842 -120.22608 0.26559204 -0.37822735 -0.88679469
-15.203689 28.206959 -95.630638 -0.063430011 0.46944895 -0.88067842
-13.909773 -30.934513 -120.93355 0.23139821 -0.17945389 -0.95616478
-48.117966 19.8545 -97.96273 -0.061781045 0.47582576 -0.87736708
-88.526451 18.234629 -96.130119 -0.052860674 0.46263513 -0.88497144
-9.4958239 17.665169 -101.98115 -0.096876994 0.45130649 -0.88709486
46.088654 64.124626 -74.296318 0.8880049 0.29501471 -0.35272306
-98.706734 16.467592 -96.43792 -0.050753683 0.4612377 -0.88582379
-44.147442 10.882166 -102.90977 -0.06808801 0.48189032 -0.87358218
-47.439243 14.964817 -100.59044 -0.040003993 0.4733609 -0.87995976
-86.860374 12.980877 -98.950729 -0.066670962 0.48310766 -0.87301892
-39.964123 13.447147 -102.00812 -0.085440315 0.46661669 -0.88032311
-35.433388 7.0767641 -105.80074 -0.05149626 0.48492143 -0.87304026
-48.262409 10.237498 -103.16361 -0.041901138 0.4786098 -0.87702733
29.193151 7.4917912 -109.53544 -0.18436353 0.57144564 -0.79966235
-70.349602 2.2801616 -105.89919 -0.054035332 0.46923131 -0.88142055
-48.003635 -3.4884324 -110.49483 -0.062939666 0.46924713 -0.88082105
41.934036 34.070164 -97.606178 0.21998046 0.55023569 -0.80551177
-62.040485 -11.205163 -113.7785 -0.054158118 0.46991569 -0.88104832
-46.922386 -12.659337 -115.59647 -0.07499972 0.46750331 -0.880804
-55.339958 -17.226498 -117.44305 -0.055260684 0.45609176 -0.8882153
-41.138973 -17.438692 -118.38457 -0.040182114 0.45884964 -0.88760483
-51.437313 -17.051043 -117.44473 -0.065713838 0.45672587 -0.88717711
-44.398815 -19.559914 -119.53019 -0.054685831 0.46250093 -0.88493079
39.908733 68.192284 -79.1604 0.2578786 0.53853977 -0.80216801
29.906818 1.1811082 -110.65429 0.65955687 -0.13807291 -0.73886454
17.391748 -15.416349 -112.8763 -0.52575976 0.74590468 -0.40890434
-86.72995 -8.3297653 -110.33135 -0.11321034 0.39278853 -0.91263384
41.332397 17.3701 -102.22904 0.71497005 0.030566061 -0.69848657
43.379402 24.400229 -98.914062 0.76684391 0.043715686 -0.64034307
41.361038 22.040945 -102.29738 0.78163844 0.013907077 -0.6235767
39.975788 23.142952 -102.85267 -0.016442791 0.54132122 -0.84065509
45.55278 23.365007 -97.921227 0.52262288 0.18938965 -0.83126223
38.739029 13.158994 -104.6992 0.65969104 0.010845072 -0.7514587
27.179211 1.9227304 -114.13881 0.0049502733 0.55338204 -0.83291292
29.336464 -0.92193204 -111.05288 0.61177605 -0.10271306 -0.78433412
38.382885 16.629753 -105.24464 0.58954173 0.070473291 -0.8046577
36.307583 13.863122 -107.75481 0.5265125 0.12556422 -0.8408438
36.879589 10.457259 -106.00738 0.67613894 -0.095315076 -0.73058277
34.734707 9.5293331 -107.82706 0.73699719 -0.11655384 -0.66577047
33.128235 8.7678556 -110.3206 0.29049599 0.31573406 -0.90328515
31.219917 89.346512 -62.239239 0.68245929 0.70540923 -0.19143434
33.21571 87.032799 -61.858482 0.74520761 0.64292574 -0.17695214
34.383015 85.405792 -63.78009 0.71889734 0.68443668 -0.12137975
38.997379 9.9857769 -104.79849 0.59950656 0.018771242 -0.80014962
-10.750274 119.38531 -39.647346 -0.066255003 0.49299341 -0.86750662
-63.196541 -37.659161 -120.3242 0.14613059 0.91320533 -0.38039708
6.9195261 -28.961107 -119.85408 -0.097829528 0.50015283 -0.86039329
-4.7592435 -65.144875 92.688011 -0.57199681 -0.43486094 -0.69549674
15.604512 103.91475 -49.988987 0.17483199 0.58807498 -0.78968447
0.90077108 104.3131 -57.260544 -0.087138809 0.4638994 -0.8815918
7.6436944 104.13005 -57.786152 0.081200197 0.6556465 -0.75068921
4.0520101 105.78919 -56.672611 -0.063799351 0.44583845 -0.89283687
12.271712 103.39655 -56.820595 0.29654863 0.83215034 -0.46859854
12.707359 101.81628 -59.253819 0.099476568 0.64484173 -0.757815
36.58112 90.572426 -58.655926 -0.099417642 0.4019829 -0.91023391
30.754969 86.484558 -68.314774 0.44533876 0.69142097 -0.56886768
30.729712 87.995438 -65.810005 0.58814847 0.72384924 -0.36072671
30.831938 84.235519 -70.775856 0.31264409 0.62103373 -0.7187286
47.832237 57.135307 -79.598808 0.80878264 0.42921552 -0.40205055
34.763687 79.740196 -72.659683 0.34033313 0.60110474 -0.72308129
37.734085 81.579552 -64.993401 0.77967012 0.61408287 -0.12254246
34.630856 84.368973 -66.553413 0.62479806 0.67982572 -0.38401088
0.056739841 70.721321 -74.2948 -0.061492272 0.42993769 -0.90076208
36.478882 7.9415359 -106.70946 0.59569281 -0.01909681 -0.80298525
39.577244 77.645721 -69.031921 0.7274549 0.62936711 -0.27332461
-9.3914242 61.381874 -78.696274 -0.018166207 0.46085981 -0.88728702
36.263546 62.725132 -81.654778 -0.093724228 0.50471866 -0.85818112
-38.702572 57.705082 -78.355392 -0.16500756 0.44492564 -0.88023496
24.346756 59.361889 -82.861931 -0.063766941 0.46372688 -0.88368046
-41.067623 53.794128 -80.568176 0.0072523486 0.5194509 -0.85446954
37.181911 74.991447 -75.006943 0.40656477 0.59319353 -0.69485718
-11.509543 56.361835 -81.264427 -0.071135618 0.47782436 -0.87557048
4.6759911 56.183289 -82.684036 -0.086140789 0.46488503 -0.88117063
-27.464962 53.260761 -81.705116 -0.034296505 0.44204497 -0.89633703
33.249866 16.856022 -105.85254 0.02095915 0.38332081 -0.92337745
40.240292 57.502144 -84.987579 -0.0022294233 0.45321751 -0.89139718
43.475838 59.312012 -82.842972 0.66004074 0.45282805 -0.59941047
43.32906 57.880608 -84.462761 0.47840589 0.49870241 -0.72278881
39.003311 77.106155 -71.344666 0.6148262 0.6134277 -0.49567655
-76.219177 7.3469477 -102.84977 -0.069915757 0.47675604 -0.8762508
-103.53428 -5.1000094 -102.46178 -0.56849378 -0.041699149 -0.82163012
36.654877 54.840065 -86.007721 -0.088968188 0.44726959 -0.88996321
1.1371294 49.877716 -85.846123 -0.09080074 0.46717247 -0.87949133
-32.615761 42.816467 -86.687088 -0.077862442 0.46724844 -0.88069081
-34.78754 45.880199 -84.823517 -0.094039164 0.51879025 -0.84971368
-39.481174 42.725582 -86.117493 -0.057796031 0.49344948 -0.86785209
