# .PCD v0.7 - Point Cloud Data file format
VERSION 0.7
FIELDS x y z normal_x normal_y normal_z
SIZE 4 4 4 4 4 4
TYPE F F F F F F
COUNT 1 1 1 1 1 1
WIDTH 734
HEIGHT 1
VIEWPOINT 0 0 0 1 0 0 0
POINTS 734
DATA ascii
15.973538 -30.020582 77.812805 0.9838385 0.17647628 -0.030296599
15.836573 -33.194187 74.98188 0.8839497 -0.45725793 -0.097714238
15.277618 -27.428192 76.023987 0.89885587 0.4203079 0.12409471
15.408382 -29.2784 72.595718 0.99083877 0.10042662 -0.090294667
15.692307 -29.293991 74.562256 0.99022925 0.13549148 -0.032985888
14.984292 -28.004353 69.401733 0.99179429 0.10684027 -0.070208542
15.1241 -26.155193 70.786827 0.99207032 0.11766486 -0.044176258
14.861483 -25.35705 68.168358 0.98883766 0.091810383 -0.11734948
15.264819 -28.909904 67.947327 0.9925707 0.083266228 -0.088713787
14.975019 -27.764624 65.984642 0.99091458 -0.025442678 -0.13206385
38.9175 10.834917 -1.8286997 0.99362874 0.0074210963 -0.11245818
14.496918 -26.056778 65.9217 0.99353826 0.10021452 -0.053280272
14.731762 -26.522913 63.045692 0.97145665 -0.16982822 -0.16562127
14.479309 -22.287308 64.471107 0.98409301 0.17721957 0.012417453
14.147205 -23.352434 62.144295 0.99525726 0.066967912 -0.070556752
14.042814 -20.559776 62.514076 0.98282075 0.18375131 -0.01728796
38.795372 14.895816 -0.61656779 0.99274528 0.098772988 -0.068561256
14.019176 -22.277582 60.449726 0.99442643 0.062659621 -0.08479315
14.056516 -24.119225 58.667255 0.99002498 0.097266443 -0.10193037
13.558739 -22.21652 57.756844 0.99460536 0.06147607 -0.083552085
13.672971 -20.383762 56.850014 0.99740773 0.00060449372 -0.071954519
13.628503 -22.639759 55.532669 0.94597179 -0.23032831 -0.22822411
13.561527 -18.66992 54.801037 0.99175966 -0.022986259 -0.12603326
13.043831 -19.399466 52.134674 0.99428797 0.02889335 -0.10274544
13.436219 -17.012486 53.787334 0.98953652 0.14301458 -0.019084333
12.805495 -18.073223 49.682503 0.99647385 0.022459257 -0.080841817
12.607229 -16.976662 47.759117 0.99250782 0.0041013141 -0.1221123
13.285081 -19.998104 50.537697 0.98670286 -0.11104282 -0.11868832
12.79799 -21.42263 51.160355 0.72627962 -0.58824503 -0.35564816
12.909521 -18.476124 47.01873 0.98777401 -0.055609386 -0.14563692
12.875164 -14.606577 48.103931 0.99244905 0.03476828 -0.11762691
13.931889 -10.971376 46.082844 0.52129179 -0.3190752 0.79148334
12.581204 -13.509851 46.273239 0.96041131 -0.11289503 0.25468558
13.665339 -6.3992162 48.014488 0.44429755 -0.26644155 0.85534114
12.564558 -16.937222 44.395847 0.85209572 -0.3776249 0.36239809
12.612648 -15.495061 44.727818 0.74172592 -0.34487343 0.57524335
13.671649 -13.10758 45.203106 0.57101905 -0.39873922 0.71759617
14.919371 -7.2044539 47.049782 0.46615136 -0.3056179 0.8302412
16.165613 -4.1519132 47.29818 0.49466744 -0.21430127 0.84224647
16.478931 -7.2532725 46.135834 0.49848363 -0.29037496 0.81682098
17.391584 -9.1940289 44.807484 0.51798517 -0.34005234 0.7848922
17.733032 -11.554134 43.419079 0.53933465 -0.38627008 0.74827373
18.526096 -9.8637247 43.647816 0.56677115 -0.35014671 0.74576664
18.205744 -7.2261686 45.02766 0.54457498 -0.28218529 0.7898162
18.894999 -1.5711814 46.141441 0.54718632 -0.16270797 0.82104397
2.0959575 -23.842766 72.76252 -0.77167618 0.40524212 0.49019861
20.243357 -8.3909359 43.038902 0.59294319 -0.34601274 0.72711313
20.047466 -6.7893252 43.841103 0.58119881 -0.29064596 0.76008737
21.729231 -2.1782024 43.889565 0.62055504 -0.16859032 0.76582557
20.231123 -1.1327076 45.206802 0.58716506 -0.15568274 0.79435515
19.996025 -11.450948 41.702183 0.58914638 -0.39445648 0.70520246
19.391428 -4.2618442 45.190769 0.5608049 -0.22100618 0.79790604
20.479801 -13.11326 40.256191 0.60586232 -0.41331685 0.67977941
21.868357 -9.607728 41.006741 0.63101077 -0.35593578 0.68930042
22.372101 -7.2124448 41.801224 0.64173716 -0.30167302 0.70510054
22.0912 -13.932985 38.208153 0.63835007 -0.4616091 0.61597586
23.795269 -1.1140871 42.265793 0.6679765 -0.16297603 0.72611719
21.927595 -4.4964242 43.16766 0.64222258 -0.22185835 0.7337091
23.140976 -9.7991142 39.825966 0.65115047 -0.34842667 0.67424172
23.902456 -5.5380931 40.899536 0.67788982 -0.25483802 0.68958181
22.057821 5.309833 44.504753 0.62149948 -0.029283095 0.78286713
23.281527 -11.979364 38.356876 0.66563272 -0.41727957 0.61871701
25.443289 -3.8475697 39.990284 0.69265974 -0.21683088 0.6879003
25.322721 -1.6632383 40.711838 0.70279187 -0.15813799 0.69359642
24.593479 -13.718078 35.607414 0.68215251 -0.44703257 0.57864493
24.7859 1.9081008 41.928291 0.68393624 -0.10505402 0.72193831
24.981731 -9.3913183 37.969856 0.69408596 -0.3686195 0.61835611
26.622519 0.18657558 39.730225 0.72801292 -0.11491208 0.67586416
25.98642 3.8225009 40.885975 0.71936244 -0.057155397 0.69227952
24.133081 8.7029648 42.653656 0.66904902 0.048238285 0.7416513
25.949011 -11.158023 35.803608 0.72017163 -0.39363721 0.57131648
25.412062 -7.3643618 38.655754 0.70162308 -0.29718089 0.64761764
26.25573 -5.1115155 38.604362 0.71425885 -0.24950659 0.65389663
26.405062 -9.140501 36.583168 0.72997326 -0.33441064 0.59607768
27.105486 -5.8145242 37.308918 0.73869652 -0.28236288 0.61204469
25.008438 11.129769 41.641518 0.68951935 0.099743776 0.7173661
26.082779 -12.967266 34.285191 0.73003852 -0.41635016 0.54193765
27.423525 -2.1890147 38.308567 0.72896111 -0.18032776 0.66037697
28.465773 -6.949182 35.142727 0.76008582 -0.29515481 0.57892412
27.944946 -3.585937 37.339706 0.75870168 -0.20154727 0.61947596
28.133245 0.12540475 38.024086 0.76532513 -0.13444632 0.62944543
27.596664 5.4493241 39.330681 0.75022602 -0.020921685 0.66085041
28.402559 2.7434585 38.157017 0.75988299 -0.090051189 0.64379245
28.519815 -8.7006903 34.033077 0.76908612 -0.3434909 0.53899944
29.871189 -1.0123904 35.546909 0.78971201 -0.15597577 0.5933181
27.155998 -16.162334 29.559484 0.73644972 -0.50186348 0.45362413
27.271208 -13.986567 31.858345 0.73993647 -0.46503064 0.48604581
28.738028 10.807917 37.693157 0.76031697 0.096083656 0.64240646
28.910963 -4.3612151 35.770061 0.78053498 -0.2371542 0.57837963
29.321512 5.070456 37.192619 0.77918583 -0.020759892 0.62644911
28.266754 -11.9068 32.059608 0.75056851 -0.40207204 0.52439004
29.914261 -5.3064079 33.87793 0.79877174 -0.26906195 0.53811657
30.588234 -2.6594374 34.01532 0.80550057 -0.21210486 0.55333579
30.488834 -6.657022 32.279888 0.80079538 -0.3093009 0.51289356
29.119577 -9.9501457 32.307636 0.77133471 -0.36724728 0.51978099
30.56175 1.4459876 35.249321 0.80886668 -0.10799026 0.57799023
30.778452 3.7597816 35.215797 0.81099695 -0.056865849 0.58228028
29.687069 8.4793072 36.681431 0.78014773 0.033293657 0.62470883
32.182091 2.8144016 32.949471 0.84500337 -0.1012158 0.52509493
30.138773 6.5496149 36.231411 0.79946679 -0.0095255673 0.60063475
31.562765 7.6854095 34.27766 0.82550764 0.021743363 0.56397188
29.702967 -11.20326 30.456091 0.78700978 -0.39471811 0.47414473
32.189461 4.8544049 33.293804 0.84050065 -0.037311383 0.54052436
31.492105 -4.5946884 31.845913 0.82285583 -0.25709495 0.50676465
29.003336 -13.855828 29.109818 0.77760231 -0.46247154 0.42597494
30.922173 -10.931391 28.536982 0.82391274 -0.38282323 0.41786864
31.365959 -7.7047987 30.187521 0.82191879 -0.31978095 0.47137007
31.864874 -2.0473781 32.352287 0.83688164 -0.16171248 0.52295142
29.249273 -14.972744 27.344492 0.78639627 -0.47580704 0.39393982
32.820297 -4.1790314 29.729895 0.85907561 -0.23033307 0.45709494
33.014435 -0.076352455 30.990835 0.85829484 -0.1506246 0.49055299
31.751467 -11.449012 26.213076 0.8291567 -0.40897995 0.38109654
32.560673 -7.4997058 28.083578 0.85477716 -0.31845599 0.409807
32.439484 9.6642866 32.785824 0.84901822 0.067729637 0.52400452
32.240719 -9.4857683 26.860493 0.85480946 -0.34811813 0.38485661
33.935928 -4.5927114 27.216419 0.88310701 -0.25975949 0.39070073
34.156765 1.8270465 29.484945 0.89112401 -0.094862588 0.44373313
34.715096 -1.9788253 27.045685 0.89849681 -0.17850694 0.40104708
33.828579 7.0105581 30.640223 0.87421405 0.0052043018 0.48551291
34.140755 4.1976261 29.907692 0.88618708 -0.050431222 0.46057475
31.897644 -12.910469 24.270628 0.83110785 -0.44180369 0.33774129
33.463795 -8.8193321 24.89971 0.86909127 -0.3408564 0.35846505
34.403255 -0.068964891 28.418894 0.88900399 -0.15123558 0.43220326
34.498817 10.099936 29.20212 0.88992363 0.074841864 0.4499273
34.232098 -6.3697834 25.240826 0.89096111 -0.28707606 0.35181749
33.707375 -10.019017 23.000519 0.88168854 -0.36645693 0.29721153
33.096535 -12.63345 21.157341 0.85734111 -0.44000584 0.26713511
35.846466 4.4531469 26.148964 0.91762286 -0.055676334 0.39353326
-23.185526 68.023994 25.728903 0.27001873 -0.91233593 0.30778733
-18.833221 69.811203 27.389853 0.25936469 -0.91601551 0.30601561
36.268433 1.9503378 24.637009 0.92299592 -0.10959383 0.36887348
34.791111 -7.0036449 22.961893 0.9024834 -0.31023917 0.29878992
35.670441 -1.7104872 24.783508 0.91863221 -0.19982034 0.34086156
35.395599 6.7921958 27.30518 0.90891063 -0.0086375205 0.41690147
-19.074677 69.298172 26.058811 0.26054326 -0.91799885 0.29899043
36.476215 -3.3047895 21.506395 0.93249506 -0.22573522 0.28195152
36.42997 7.1599903 24.994108 0.92930299 0.0092879869 0.36920151
35.990665 -5.3742743 20.937643 0.91916341 -0.29249629 0.26378891
36.829937 0.54394037 22.392229 0.94275528 -0.13730416 0.30390787
34.889263 13.544309 27.354834 0.89389306 0.13855132 0.42633155
34.402431 -10.923301 19.293766 0.89056551 -0.39419723 0.22693977
36.802258 3.7645335 23.587904 0.94297504 -0.068969578 0.32563984
36.548527 11.653848 24.113308 0.93384403 0.10442222 0.34209821
35.720947 -7.5842576 19.39291 0.91286564 -0.32717699 0.24419564
37.417809 -0.37465328 19.959766 0.95214593 -0.16474585 0.25744325
35.737511 -9.1655407 16.627439 0.91031587 -0.37049189 0.18455572
37.239212 7.8787131 22.722601 0.94913876 0.025970442 0.31378514
37.62067 9.7910337 21.174713 0.95815837 0.059289962 0.28003088
36.758324 -4.7910924 18.560547 0.94276452 -0.26028061 0.2084446
37.512939 5.9741836 21.666225 0.9555428 -0.016401665 0.2943958
37.212746 14.448977 20.95854 0.94245577 0.15340522 0.29705882
37.893776 3.8537915 20.338991 0.96274841 -0.045167852 0.26659942
36.610981 -7.2829108 15.845696 0.93403578 -0.31845149 0.1617585
37.645172 -2.8690493 16.67304 0.95555812 -0.24633744 0.16194607
37.164543 -5.0617857 16.042854 0.95673472 -0.24570899 0.15583906
37.770653 1.6821132 19.910231 0.95730382 -0.12629239 0.26003796
37.923241 7.2061496 20.133656 0.96416056 -0.0063890084 0.26524255
37.277397 -6.4477286 13.233438 0.95113665 -0.28992152 0.10622898
38.466545 3.3822944 17.688356 0.97562224 -0.07421001 0.20652875
37.997749 -4.3849535 11.605991 0.9631924 -0.2529377 0.091009922
38.188217 -2.4524832 13.680779 0.96701539 -0.22044167 0.12761953
38.568966 6.6763463 18.006001 0.97338116 -0.026537532 0.22765079
38.033978 -1.1589797 16.849371 0.96616191 -0.1756662 0.18887149
38.55946 9.0234041 17.952158 0.96845704 0.041396014 0.24571784
38.954002 3.207056 15.028461 0.98581183 -0.09083581 0.1411521
38.773117 8.6030197 16.839283 0.98366702 0.047278572 0.17367759
38.115772 11.518394 18.917828 0.96613711 0.1011006 0.23739783
37.852261 14.606469 18.395443 0.9627198 0.16292088 0.21593383
38.452595 10.324518 17.470467 0.97764957 0.10479644 0.18226072
37.183586 17.272608 18.667231 0.94350183 0.2214489 0.24650493
37.46841 -6.291328 10.141902 0.94850641 -0.31358477 0.044724286
38.9916 7.1291976 15.584791 0.98646736 -0.019114172 0.16283984
38.758701 0.34362203 13.548132 0.98064679 -0.15902561 0.11420483
-9.4078093 64.350876 15.370308 0.17127974 -0.37767857 0.90995717
37.983982 16.900795 15.557809 0.96069068 0.21314847 0.17787933
39.139107 1.88482 11.346004 0.9892118 -0.11259681 0.093711637
39.157921 10.024055 14.202074 0.9884972 0.067047574 0.13556476
38.598881 13.745199 14.988242 0.9770143 0.12544593 0.17235549
39.301445 6.698895 13.505446 0.99256152 -0.013533138 0.12099024
38.547276 -2.5075455 10.368193 0.9748807 -0.21624438 0.053348269
38.991684 -0.48617348 9.8489246 0.98424846 -0.16974986 0.049396254
38.484196 16.507006 12.9685 0.97452712 0.19446488 0.1117148
-1.4314213 62.259953 13.248694 0.25290152 -0.046660706 0.96636623
39.365459 1.658551 8.9517603 0.99217898 -0.12370839 0.016640898
39.404892 4.8677993 11.875079 0.99490863 -0.063804381 0.07801155
39.507839 7.3179994 11.22431 0.99690634 0.023144428 0.075114436
39.331913 11.981569 10.820386 0.99385893 0.089635991 0.064882495
39.006981 13.037173 12.745553 0.98516792 0.12941931 0.11267116
39.510796 3.4668076 7.9151783 0.99659806 -0.082218245 -0.0056943027
39.704109 6.4544826 8.1839323 0.99989957 -0.012707193 0.0062771626
3.0975847 65.792572 14.271855 0.2020773 -0.62391359 0.754915
25.221125 14.472044 40.786507 0.68518651 0.16351028 0.70977736
-25.778732 50.408504 19.193073 -0.37023467 0.65467864 0.65903127
-23.019993 52.590458 18.56395 -0.26873642 0.65624553 0.70506912
-27.214205 49.737713 18.944462 -0.36871651 0.61092281 0.70058656
-31.357508 47.201439 18.901194 -0.4690786 0.60863149 0.63994765
-33.147312 46.384224 18.284224 -0.52458471 0.56257367 0.63900059
-33.260811 48.189888 17.011866 -0.42054075 0.40837625 0.81016934
-44.551575 37.655479 14.068932 -0.7771433 0.31307787 0.5459218
-30.449495 49.443634 17.850395 -0.36952591 0.51088643 0.77617371
-32.667778 50.465733 16.17275 -0.32469732 0.36542758 0.87237275
-35.569084 45.674107 16.999308 -0.48944965 0.41712138 0.7657994
-37.102791 48.477509 15.116451 -0.35900044 0.22466537 0.9058941
-38.456013 46.480709 15.110426 -0.41165975 0.22170551 0.8839587
9.7398977 -27.121305 83.04657 -0.11075962 0.76404548 0.63558388
7.9337001 -24.502569 79.634041 -0.37154564 0.71419853 0.59319001
6.8255339 -23.179777 76.837318 -0.48582396 0.66279 0.56981093
7.9847603 -22.410561 77.281654 -0.14164011 0.80224705 0.57994634
6.7404003 -20.35058 73.730591 -0.47684303 0.67128932 0.56744277
4.3002915 -24.120256 76.030083 -0.62709969 0.55522001 0.54633015
3.3730414 -21.072788 71.84198 -0.56070369 0.60982585 0.56011051
8.2962313 -19.503531 71.665588 0.35642293 0.81459469 0.45760059
7.220397 -19.241331 72.7061 0.15946625 0.84083354 0.51727122
5.5201163 -19.286259 71.190514 -0.45969632 0.67125177 0.58146381
6.3845081 -17.504539 70.172661 -0.14235891 0.79392052 0.59112102
5.7447128 -16.082371 67.912186 -0.18363647 0.7984488 0.57337338
1.4666409 -16.863604 65.396049 -0.51591861 0.63250142 0.57772827
5.3294325 -14.396017 65.511276 0.0011646427 0.82039154 0.57180095
2.4705744 -13.73487 62.328796 -0.44065255 0.68588912 0.57912129
0.37896293 -16.499279 63.843182 -0.67616814 0.50669432 0.53484339
2.4165943 -10.605449 58.451294 -0.41655788 0.70081025 0.57908934
-0.82826763 -10.564161 56.407707 -0.48254967 0.65332127 0.58336705
3.4418402 -9.1054058 57.703579 -0.00071491685 0.82643986 0.5630244
1.7755483 -8.4975615 55.574383 -0.43860736 0.66743058 0.60179734
-23.816664 11.2483 49.43103 -0.40689 0.1148584 0.90622735
-29.319784 12.589171 46.137096 -0.53391623 0.1219319 0.83669949
-28.909069 14.805737 46.106796 -0.52245879 0.1652845 0.83649141
-24.343882 20.339481 47.091366 -0.42218992 0.30455557 0.85381585
-27.567539 16.889969 46.329987 -0.51001137 0.20808372 0.8346194
-29.877483 16.485794 45.034576 -0.5415374 0.21796182 0.8119297
-21.05266 27.293894 45.507179 -0.33367828 0.45397338 0.82617617
-23.062815 27.052553 44.783806 -0.38180339 0.42260256 0.82196915
-27.550354 22.15135 44.676285 -0.47866529 0.31962165 0.81775403
-18.332541 30.371986 44.807289 -0.29736111 0.50586009 0.80974191
-29.643536 22.470736 43.187672 -0.53582525 0.3458029 0.77026725
-24.702581 28.097746 43.425152 -0.41932869 0.47363874 0.77448678
-26.184998 24.396206 44.541119 -0.45943809 0.38752508 0.79921269
-20.048853 32.035149 42.977249 -0.32127529 0.56538862 0.75968277
-22.329784 30.006966 43.380383 -0.35349712 0.50324339 0.78853399
-29.337246 25.542253 41.882229 -0.53716308 0.40159371 0.74174011
-23.502838 32.060532 41.350376 -0.38393968 0.55439293 0.7384029
-14.145887 37.720139 40.48885 -0.18546301 0.66799396 0.72068554
-26.763708 30.631638 40.559425 -0.4563109 0.52736527 0.7167052
-19.820229 35.120445 40.665569 -0.3197751 0.60911316 0.72575825
-5.809639 43.502178 35.20306 0.012902311 0.78118098 0.62417126
-22.581217 35.077225 39.461689 -0.37353888 0.60569185 0.70257097
-24.942976 34.042088 38.871597 -0.40846851 0.58721995 0.69880342
-14.609101 40.020725 38.095463 -0.19327924 0.71417898 0.67274922
-17.558962 37.895561 39.162937 -0.286486 0.65796512 0.69642484
-21.989452 37.365898 37.581207 -0.34289688 0.64028352 0.68735635
-27.828482 34.451004 36.615868 -0.49553728 0.58569586 0.64140713
-26.025736 34.658386 37.822601 -0.42677775 0.58602077 0.68879646
-10.147415 42.627102 35.96743 -0.079392701 0.75967294 0.6454407
-13.992128 41.926121 35.97049 -0.16801642 0.76057643 0.62713158
-17.63269 39.593899 37.412968 -0.26680422 0.70451391 0.65762877
-24.49692 36.921612 36.680019 -0.42804512 0.6289646 0.64898461
-16.387028 41.887852 35.361481 -0.23185402 0.73693174 0.63496095
-20.072811 39.842567 36.06966 -0.31120944 0.69910336 0.64374167
-15.296906 43.28038 33.910419 -0.18538733 0.76700777 0.61427248
-23.043755 38.83094 35.657902 -0.3746174 0.67382199 0.63688755
-5.1418438 46.108501 31.789358 0.035045162 0.80900198 0.58676028
-11.867084 44.448021 33.517048 -0.12031898 0.77355373 0.62220418
-22.070007 40.105324 34.527943 -0.33348843 0.71314567 0.61661071
-27.002985 37.502785 34.294334 -0.46294552 0.62578523 0.62775338
-29.24526 35.694305 34.357895 -0.530433 0.58985174 0.60886425
-24.901011 39.948483 33.331413 -0.38560098 0.68283951 0.62051755
-17.523783 42.988918 33.638763 -0.25747684 0.74465686 0.61578554
-22.86861 41.519798 32.633034 -0.34591228 0.70818049 0.61548775
-10.583323 47.630783 29.467131 -0.095829338 0.80882615 0.58018696
-13.522263 45.722958 31.433548 -0.15956083 0.77969962 0.60548234
-17.379475 44.429943 31.787197 -0.22844416 0.76217407 0.605726
-4.5084949 49.739101 26.537508 0.054707836 0.83475882 0.54789114
-20.180302 42.509495 32.944817 -0.31040391 0.72873122 0.61040998
-14.689396 46.61982 29.995955 -0.17523117 0.78577065 0.5931766
-7.6882768 47.344864 30.163235 -0.028266165 0.81210941 0.58282024
-26.093218 41.092239 31.130957 -0.41690841 0.68783104 0.5942018
-22.169062 43.523254 30.683386 -0.32865435 0.72910672 0.60032457
-29.574097 39.608829 30.03356 -0.51692933 0.62765241 0.58209676
-18.388325 46.812614 28.419043 -0.2362743 0.77579278 0.58508128
-16.028624 47.254074 28.558306 -0.1932817 0.80732417 0.55755699
-19.03167 45.097221 30.214088 -0.27938303 0.74694276 0.60334218
-13.718846 48.329803 27.861519 -0.15696634 0.8084904 0.56719035
-20.652998 46.048466 28.321928 -0.29350683 0.75650156 0.58443058
-24.436522 43.257656 29.677298 -0.36866862 0.71451396 0.59460342
-9.02073 49.004383 27.666105 -0.052290089 0.82646197 0.5605588
-28.564816 41.190113 29.10372 -0.4932923 0.66137815 0.56501478
-22.724068 45.313461 28.074539 -0.33737788 0.74305099 0.57797188
-12.655643 49.365807 26.612555 -0.12200446 0.82037055 0.55866539
-17.04612 48.161713 26.962746 -0.18856995 0.80429161 0.56352139
-14.804304 49.450008 25.829311 -0.17735864 0.80957431 0.55958319
-27.085497 42.68198 28.565802 -0.44415528 0.69536746 0.56496918
-25.191488 44.44482 27.75144 -0.38548625 0.72690982 0.56833303
-24.780388 45.921913 26.068859 -0.3764042 0.73965836 0.55787587
0.52900898 -24.86714 70.190559 -0.93923753 0.090684995 0.33107245
-13.608256 51.420353 23.332655 -0.12925676 0.82482541 0.5504142
-18.812294 48.528679 25.792112 -0.23812707 0.79433805 0.55885822
-21.540266 47.853497 25.472992 -0.31078979 0.77570337 0.54926676
-30.206131 43.79031 24.322168 -0.50589263 0.68656623 0.52220637
-18.951019 50.07539 23.487587 -0.26177663 0.79772985 0.54323113
-24.843933 47.102325 24.459513 -0.36857468 0.76295096 0.53109181
-22.504408 49.25948 22.675755 -0.31006986 0.77536631 0.55014884
-27.330788 45.936054 24.037317 -0.44764903 0.71753669 0.53362095
-15.705029 53.04401 20.289045 -0.15677686 0.79837805 0.58138931
-18.738359 51.406868 21.716421 -0.23391259 0.79353875 0.56176609
-25.76162 48.03635 22.424124 -0.3906194 0.74378073 0.54240811
-28.970825 46.866131 21.401968 -0.47462493 0.69703186 0.53747344
-20.922188 52.123093 19.750784 -0.25784051 0.75355816 0.60470515
-24.164351 50.033794 20.807343 -0.33086696 0.73127908 0.5964545
-26.460791 48.867123 20.779358 -0.42034236 0.72931558 0.53982508
-42.436581 -17.949297 11.324646 -0.81743538 -0.57328594 0.056059755
2.3705688 -34.366039 25.401262 0.15671058 -0.92175275 0.354702
9.8554964 -35.108391 71.529205 0.17379718 -0.88880235 -0.42405781
32.495422 -14.786356 19.168106 0.85850734 -0.45956394 0.22752176
33.652882 -15.323952 11.394913 0.88066614 -0.46790835 0.074086547
32.618347 -13.919831 -4.5915647 0.85503209 -0.45037133 -0.25707152
33.339867 -11.75605 -5.5196018 0.86498743 -0.42440009 -0.2677339
34.554905 -11.072256 -2.7985661 0.88542926 -0.40266502 -0.23211212
4.6361742 -12.715114 63.211498 -0.13083015 0.80177057 0.58313578
-25.36508 -12.280833 44.240921 -0.47205356 -0.4284054 0.77047664
-29.482395 -17.05348 34.53957 0.56454027 0.57205671 -0.59501714
-25.707401 -18.975113 35.802032 0.46427965 0.61147147 -0.6407395
-29.630907 -18.078176 33.039143 0.59266549 0.59186268 -0.54630232
-49.297588 -2.7968562 4.4942341 0.5335651 0.38888794 -0.75104892
-28.032412 -18.988062 33.912281 0.5381403 0.62174261 -0.56907034
5.1611829 68.805519 16.00025 0.26936007 0.8197735 -0.50538749
-30.801325 48.760952 16.127829 0.3898159 -0.4267737 -0.81603175
-32.89893 47.252155 15.824377 0.36979115 -0.36969739 -0.85239565
-35.073299 46.686138 15.092217 0.41408077 -0.30256668 -0.85848147
-30.335747 47.442284 17.246405 0.48457438 -0.57599449 -0.65834492
-33.465561 44.538334 17.504972 0.50991541 -0.57170826 -0.64275658
-34.228474 45.916531 16.019196 0.47881573 -0.4843592 -0.7322101
-31.963133 44.437057 19.070135 0.55274975 -0.62710989 -0.54881781
-35.120934 44.623196 16.109652 0.56221199 -0.46795458 -0.68186229
-37.790203 42.720028 15.26318 0.52030659 -0.38377225 -0.76288921
-34.440788 42.665035 18.510784 0.59117097 -0.60182178 -0.53696138
-35.769588 42.568935 16.99872 0.60624695 -0.51869404 -0.60284424
-34.807735 43.408394 17.480173 0.59039193 -0.53546596 -0.60391521
-36.971874 42.509148 16.031706 0.58230895 -0.48783472 -0.65033346
-37.180683 41.791431 16.594969 0.61211765 -0.50686198 -0.60696203
-41.367477 40.044376 13.816634 0.60631341 -0.3148292 -0.73025101
-36.688519 41.388199 17.257895 0.62661088 -0.58295345 -0.51722729
-32.482872 42.822495 20.412638 0.56383306 -0.62356752 -0.54153097
-30.425043 40.86245 25.052164 0.52501506 -0.65904248 -0.53853714
-34.397564 41.781055 19.696245 0.59665775 -0.61496371 -0.5155766
-39.942421 40.237995 14.833177 0.63300484 -0.41976041 -0.65046597
-39.11116 39.434635 16.354908 0.66862637 -0.51517034 -0.53622609
-30.499397 40.10918 25.901501 0.53067535 -0.64573604 -0.54900688
-32.961376 39.680626 24.025789 0.60157448 -0.60048884 -0.52680284
-35.40741 40.036884 20.516167 0.61788225 -0.5911302 -0.51844639
-31.255934 38.824512 26.646017 0.55813414 -0.60380787 -0.56912422
-37.105083 39.330334 19.257235 0.65478659 -0.5669241 -0.4998515
-41.955376 37.673397 14.303114 0.68266052 -0.39199975 -0.6166935
-42.800854 38.017296 13.267303 0.66432792 -0.36086914 -0.65455472
-29.263952 39.165657 28.169579 0.55049425 -0.61243439 -0.56734496
-34.140553 40.224899 21.758749 0.61612773 -0.60965735 -0.49870291
-40.828419 37.28619 16.146538 0.71548671 -0.45640576 -0.52893513
-33.90448 36.446491 26.493616 0.6078881 -0.58313537 -0.53891104
-34.368504 37.590179 24.565849 0.64169884 -0.56647724 -0.5170359
-37.502953 37.477352 20.621449 0.68003374 -0.54764241 -0.48748532
-28.969967 38.383945 29.229811 0.53167576 -0.62362069 -0.57307768
-38.980946 37.409103 18.672802 0.71022391 -0.51136225 -0.48382914
-42.437935 35.578197 15.235142 0.73965156 -0.42187327 -0.52434576
-43.231586 36.341316 13.863565 0.66839677 -0.39158064 -0.63238478
-29.725996 36.000423 31.273996 0.56831998 -0.6181975 -0.54299575
-30.633419 35.811218 30.404541 0.57006723 -0.5969497 -0.56451249
-31.983431 35.62402 29.436031 0.56122917 -0.5958637 -0.57442862
-32.159775 36.405239 28.278734 0.57173473 -0.6029045 -0.55644006
-37.670235 35.269958 22.964714 0.70082074 -0.51179606 -0.49690554
-43.463116 34.588295 14.623162 0.76429284 -0.35126612 -0.54080355
-34.538422 34.340149 27.985659 0.63292187 -0.54679555 -0.54810995
-36.546028 35.061878 24.637253 0.66357112 -0.54379416 -0.51377171
-39.216793 34.80154 21.25206 0.71579158 -0.50927991 -0.47778282
-32.827915 33.532032 30.592829 0.59609163 -0.55540913 -0.57982373
-30.878807 34.25444 31.839344 0.58678079 -0.53623307 -0.60674739
-35.560402 34.775547 26.253086 0.66786522 -0.53634071 -0.51603752
-40.407356 35.092808 19.003851 0.7533623 -0.48242864 -0.44688681
-41.62595 35.22308 16.738174 0.75359935 -0.46202016 -0.46757394
-33.579609 33.957096 29.347248 0.62387621 -0.53048491 -0.57390267
-38.038399 33.140995 24.487389 0.71540356 -0.48151138 -0.50630486
-43.044315 32.001442 17.60136 0.7935521 -0.4227455 -0.43767712
-35.62751 31.546816 29.174782 0.67170024 -0.5061813 -0.54092455
-46.059841 32.114079 12.296998 0.60113919 -0.27536812 -0.75020272
-35.784939 32.871277 27.773626 0.6760056 -0.49351701 -0.54722703
-39.713642 32.921417 22.280073 0.72904825 -0.46786946 -0.49958652
-43.233574 32.290455 16.791735 0.79190511 -0.39577845 -0.46502221
-44.623268 31.414368 15.248232 0.81175542 -0.35716334 -0.46204698
-32.273781 32.608955 31.807375 0.58842826 -0.51773769 -0.62104744
-37.226845 32.95031 25.827488 0.70047414 -0.49020681 -0.51868415
-40.643505 32.608147 21.11623 0.75514793 -0.45810634 -0.46892452
-41.161823 30.57188 22.262812 0.77631682 -0.42681462 -0.46385494
-41.75526 32.041386 19.817085 0.77926767 -0.44003233 -0.44622129
-45.793079 31.397396 13.200555 0.70458674 -0.19751497 -0.68157572
-43.144073 29.482798 19.789028 0.82210815 -0.37216559 -0.43084919
-34.29694 31.803761 30.564142 0.63656157 -0.51568925 -0.5734579
-37.091301 30.685127 28.064764 0.70605338 -0.4752546 -0.52499676
-38.501015 30.817337 25.97105 0.71930456 -0.47668582 -0.50534302
-39.184387 29.402977 26.442284 0.72682518 -0.45562649 -0.51393545
-42.241402 29.962343 20.767563 0.79175353 -0.41220039 -0.45079619
-33.724804 30.449444 32.391556 0.64905024 -0.47819322 -0.59166288
-36.316643 29.262224 30.441217 0.6898886 -0.46776006 -0.55249816
-39.723431 30.614336 24.410469 0.74677801 -0.45299813 -0.48694488
-32.066624 30.412582 34.143963 0.63068891 -0.48398048 -0.6066255
-42.422668 28.274015 22.070032 0.82057905 -0.36152062 -0.44266561
-46.046803 29.323315 13.937811 0.85864276 -0.2924276 -0.42097348
-34.003326 29.007393 33.25153 0.65547758 -0.46269217 -0.59687948
-34.913448 27.617977 33.18399 0.67214704 -0.45057854 -0.58753496
-40.216835 28.062668 25.977324 0.77160972 -0.39822844 -0.49601671
-45.625458 28.230871 15.876603 0.85613346 -0.32008609 -0.40568498
-36.591549 27.663111 31.284464 0.70264596 -0.43193945 -0.56543511
-38.400013 27.965067 28.639473 0.7361654 -0.4144409 -0.53506935
-43.637608 27.895945 19.907953 0.8429929 -0.33964667 -0.41713664
-44.233067 29.662865 17.305656 0.82943285 -0.35682198 -0.42978975
-47.015072 28.816347 12.443563 0.80368102 -0.22702774 -0.55005014
-32.912174 28.34934 34.911934 0.6556474 -0.46807981 -0.59247607
-41.327839 26.72521 25.081888 0.80948073 -0.35041794 -0.47111377
-36.424889 26.788862 32.34087 0.68306327 -0.40574887 -0.60728282
-40.599533 25.44236 27.387732 0.77907652 -0.36959186 -0.5064007
-41.432026 28.235369 23.884634 0.79093719 -0.39172244 -0.47007638
-37.333302 26.11186 31.468468 0.74840587 -0.38512474 -0.53996998
-36.731033 25.318811 32.69389 0.69908959 -0.40894616 -0.58654648
-45.055244 26.716612 18.094061 0.84292078 -0.3296223 -0.42524552
-45.786846 26.100685 17.076984 0.87416255 -0.28736249 -0.39148787
-45.611149 24.299532 18.631395 0.87841725 -0.26862264 -0.39525321
-47.25391 26.600719 13.256527 0.84222245 -0.27374288 -0.46446341
-34.803284 25.90449 34.77858 0.69336718 -0.42751893 -0.58005989
-37.087933 24.230154 33.118198 0.73191881 -0.38317659 -0.56344527
-39.018181 25.722565 29.397976 0.7495867 -0.38161051 -0.54082644
-43.585884 24.898682 22.578297 0.84041762 -0.32447788 -0.43406489
-44.58844 25.135832 20.334848 0.86065942 -0.3029919 -0.40922046
-46.451736 25.085545 16.327574 0.89071268 -0.26328775 -0.37055427
-46.346378 26.722326 15.090432 0.88227588 -0.27650514 -0.38096488
-33.71793 25.737457 36.085953 0.66177016 -0.40192553 -0.63286334
-35.071678 23.894547 35.698959 0.67333645 -0.35911363 -0.64626259
-42.602367 25.615927 23.737883 0.81319529 -0.34368771 -0.4696725
-38.687885 24.036926 31.00098 0.76402062 -0.35669738 -0.53762382
-47.985031 24.694809 13.10677 0.85867631 -0.22136074 -0.46224928
-33.73679 23.916365 36.941799 0.63919955 -0.35048875 -0.68453026
-40.491673 24.002621 28.484562 0.78816235 -0.31826994 -0.52678674
-41.703903 24.023863 26.490719 0.81786633 -0.32121447 -0.47740546
-47.257198 23.951097 15.037215 0.88961446 -0.25395954 -0.37959272
-40.380024 22.676548 29.350471 0.79415345 -0.31553474 -0.51938242
-44.299942 22.597794 22.593573 0.86134499 -0.27129695 -0.42951453
-38.617256 22.717474 32.020245 0.77016598 -0.32608464 -0.54819065
-42.819324 23.455894 24.91144 0.83581835 -0.29141971 -0.46527651
-33.897148 21.486147 38.059132 0.62342227 -0.34162509 -0.70330435
-36.616505 22.483086 34.808155 0.72854501 -0.33545452 -0.59723735
-45.703819 21.993034 20.056051 0.88717568 -0.24788144 -0.38919666
-48.190475 21.234806 14.606399 0.91164863 -0.18538122 -0.36678421
-35.120579 20.968651 37.250134 0.65913618 -0.27732897 -0.69901943
-35.202774 22.173544 36.496181 0.6808446 -0.33366197 -0.65201247
-43.290878 21.095003 25.463745 0.85000885 -0.25503933 -0.46091211
-46.659046 20.377718 18.499033 0.91917503 -0.16956829 -0.35547704
-47.062317 22.421604 16.546791 0.89969051 -0.21475326 -0.38005003
-48.433331 22.83626 12.880603 0.91506833 -0.18227865 -0.3597562
-38.194866 20.824778 33.547192 0.76506013 -0.30115059 -0.56920236
-41.780453 21.340364 27.92379 0.81910104 -0.29230699 -0.49358904
-42.632286 19.976082 27.2439 0.85155088 -0.24790493 -0.46195701
-45.996082 19.538704 20.851986 0.91187614 -0.18231539 -0.36775398
-40.11076 20.223166 31.307222 0.792768 -0.28549328 -0.53852814
-44.948517 20.033527 22.911064 0.87745023 -0.20248048 -0.43483663
-49.178902 20.207659 12.299121 0.91944295 -0.12911302 -0.37142238
-48.887199 22.3414 11.680793 0.75827527 -0.091288291 -0.64551151
-37.440098 19.72014 35.188267 0.75282884 -0.2754643 -0.5978027
-47.357365 20.702366 16.437057 0.8981688 -0.19183089 -0.39559278
-42.020538 19.828564 28.485056 0.83785307 -0.24010505 -0.49025676
-36.20023 19.473108 36.698242 0.70691276 -0.2579124 -0.65860122
-39.602535 18.189531 32.875721 0.78278917 -0.25113773 -0.56936014
-46.158958 18.054712 20.879934 0.91640168 -0.14345068 -0.37367076
-47.544399 19.038975 17.092558 0.91048849 -0.16058333 -0.38108239
-40.922745 17.596014 31.297863 0.82593316 -0.21450943 -0.52136379
-43.297558 18.647551 26.5723 0.86566639 -0.21090069 -0.45402938
-37.430767 16.783796 36.206081 0.74002111 -0.20978908 -0.63902831
-42.962223 16.815634 28.248333 0.85712582 -0.18426934 -0.48101982
-48.323437 18.703897 15.081416 0.93357754 -0.099676855 -0.34423465
-49.69698 18.806395 11.025932 0.88450027 -0.015913624 -0.46626824
-39.817074 16.402611 33.438747 0.80290103 -0.18889028 -0.5653941
-42.037075 17.613716 29.332024 0.84591883 -0.20743954 -0.49131477
-44.958511 15.840885 24.712847 0.89742136 -0.12972209 -0.42167166
-44.918461 17.965929 23.561245 0.88346887 -0.20052743 -0.42340475
-45.882828 16.40663 22.509253 0.90907145 -0.15966137 -0.38483414
-46.579742 17.227066 19.854773 0.93054664 -0.15686034 -0.33087426
-46.377785 15.494306 21.580202 0.92452973 -0.10665261 -0.36588231
-49.089973 18.536383 13.005178 0.93163621 -0.12719016 -0.34040663
-36.442318 16.357267 37.463306 0.71911091 -0.1921564 -0.66779888
-38.208797 17.752958 34.959454 0.75402182 -0.22126144 -0.61846137
-44.000042 16.965174 26.150749 0.87716609 -0.19918206 -0.43692809
-36.887722 14.565261 37.443398 0.72985274 -0.13609599 -0.66992003
-38.614609 14.860072 35.377289 0.7677334 -0.17199983 -0.61725318
-42.073711 14.960182 30.283792 0.84510022 -0.17426887 -0.50540668
-47.887791 16.363184 16.883579 0.93349475 -0.12368701 -0.33658436
-48.673668 15.801349 14.9156 0.93703789 -0.093407162 -0.33650425
-50.320042 17.088346 10.240866 0.76559216 -0.012691742 -0.64320105
-47.023483 14.718145 19.999128 0.9302299 -0.095771737 -0.35425985
-47.2416 17.089542 18.413965 0.92228699 -0.13432845 -0.36241218
-48.260567 13.686418 16.81068 0.9585309 -0.0066899499 -0.28490984
-49.631252 16.722031 12.395612 0.94558614 -0.036643546 -0.32330206
-36.732971 12.572083 37.896442 0.72781819 -0.1140826 -0.6762144
-40.890778 14.448615 32.366886 0.81821042 -0.15898183 -0.55250037
-42.532764 13.876031 29.978512 0.85930842 -0.13570556 -0.49312568
-45.735714 14.173479 23.053013 0.91265303 -0.096491441 -0.39718238
-38.88689 12.609759 35.629246 0.75818521 -0.10283735 -0.64387864
-39.924011 12.790202 34.260036 0.80245578 -0.10113171 -0.58807915
-47.853176 14.300503 18.003799 0.93648124 -0.09903162 -0.33644539
-43.697018 14.373329 27.509296 0.87730837 -0.13749373 -0.45981032
-44.300755 13.051054 26.70669 0.89824796 -0.10291117 -0.42727023
-48.856823 14.481445 14.465161 0.94682157 -0.033198383 -0.32004192
-45.447262 12.582932 24.5903 0.91542393 -0.078953415 -0.39467129
-47.388283 12.040726 19.314035 0.93978715 -0.0096247355 -0.34162492
-38.203739 11.920204 36.421661 0.74230528 -0.077961035 -0.66551113
-48.263977 11.919967 16.607552 0.95646733 -0.0043801717 -0.29180664
-49.136421 12.564363 14.224454 0.9483248 0.0095234727 -0.3171584
-49.623394 13.165928 12.462129 0.95982814 -0.029160887 -0.27906907
-41.330215 11.887238 32.380909 0.84028196 -0.078286864 -0.53646743
-43.671532 11.805127 28.309778 0.8772853 -0.087584004 -0.4719106
-44.657951 10.365821 26.364933 0.90628821 -0.066497415 -0.41739655
-46.326599 12.460369 22.14728 0.93231124 -0.053524464 -0.35767433
-49.941608 13.853765 10.921224 0.94197446 0.0043067452 -0.33565679
-35.837597 9.712883 39.319248 0.70084888 -0.044060964 -0.71194768
-37.232559 10.241285 37.771595 0.74650639 -0.065477096 -0.66214877
-41.631145 10.082869 32.034645 0.83708662 -0.084001832 -0.5405826
-39.146164 10.716268 35.319305 0.78351617 -0.048795361 -0.61945242
-43.635231 9.99895 28.592047 0.89586806 -0.078684069 -0.43729767
-40.162048 10.059358 34.024933 0.79899436 -0.053611491 -0.59894389
-42.735867 8.7505779 30.593239 0.85834664 -0.012124543 -0.512927
-50.057701 11.19345 11.08203 0.95342857 0.057146717 -0.2961556
-50.703827 12.675792 9.1748075 0.76934159 0.074118488 -0.63452351
-41.365139 8.3904352 32.714169 0.82065189 -0.0039975853 -0.57141447
-44.20089 8.2483587 27.86529 0.89466184 0.0097358292 -0.44663781
-45.924145 10.482678 23.384182 0.93659329 -0.025731781 -0.34947225
-47.928658 10.729647 17.980833 0.94314533 -0.0093972571 -0.33224788
-48.134857 9.1788864 17.275694 0.95839828 0.04293029 -0.2821874
-36.694637 8.5628405 38.266483 0.72976875 -0.023682848 -0.68328375
-39.386921 8.0284643 35.33881 0.79382515 -0.019982275 -0.60781777
-40.430637 8.0136843 33.94326 0.81097037 0.038168404 -0.58384103
-46.00909 8.1114941 23.39127 0.94236654 0.027029067 -0.33348867
-48.697811 10.180577 14.912984 0.95836961 0.044969264 -0.28196722
-38.065071 7.2615256 37.0252 0.76100886 -0.013179881 -0.64860773
-46.591061 8.4822464 21.488838 0.94651109 -0.0032467616 -0.32265496
-41.433079 6.3297148 32.177589 0.82479697 0.067557111 -0.56137866
-45.264477 8.3118067 25.534216 0.92387658 0.024174476 -0.38192615
-47.293316 8.1991243 19.468187 0.94856143 0.03792768 -0.31431323
-50.570389 10.039275 8.8895464 0.91877073 0.096276589 -0.38287228
-43.887398 5.1250958 27.907499 0.90188605 0.063782357 -0.42723906
-48.809231 8.2245226 14.783877 0.96012801 0.069736548 -0.27072304
-36.942242 5.9785237 38.229412 0.73435032 0.059506711 -0.67615718
-42.730572 5.3518109 30.216042 0.8572576 0.057259727 -0.51169401
-51.218349 9.6287699 8.275383 0.73287362 0.18718505 -0.65410858
-46.487907 6.1000123 21.874622 0.94121951 0.068634659 -0.33074945
-49.035896 6.1695342 13.184325 0.95951134 0.12337349 -0.25321341
-44.527126 5.2428808 26.486246 0.91784275 0.072397128 -0.39028627
-47.645267 7.0104504 17.858074 0.9563002 0.086509526 -0.2792955
-49.486664 8.8088074 11.875969 0.96252894 0.088179126 -0.25644198
-39.222275 5.3250895 35.312717 0.79759866 0.078108311 -0.59810984
-45.352165 4.5974088 24.364897 0.93111241 0.074711479 -0.35699853
-47.874325 5.7205725 16.606329 0.95555317 0.10181785 -0.27667892
-33.716431 4.5279903 40.899189 0.64485973 0.1029399 -0.75733697
-35.980064 4.1829257 38.91177 0.68708128 0.11661191 -0.71716183
-49.761894 7.8855262 10.272776 0.94581097 0.12867926 -0.29813275
-39.550636 3.8739078 34.6861 0.78196043 0.08369118 -0.61768419
-41.130806 3.4652467 32.440929 0.8255859 0.11307924 -0.5528301
-43.189339 3.5574732 29.258947 0.86667907 0.089077652 -0.49084884
-46.797703 4.6506658 20.500515 0.94679672 0.11498449 -0.3005904
-49.638462 6.15061 10.066641 0.97059661 0.14959431 -0.18858336
-47.304497 3.9075582 18.664715 0.95606524 0.12617469 -0.2646113
-45.269321 2.7891285 24.490835 0.94063044 0.045951348 -0.33630747
-47.95961 3.8441689 15.652756 0.96590936 0.12623236 -0.22601897
-50.257732 6.5300426 7.9500079 0.78032708 0.25045261 -0.57302982
-44.187145 3.0642154 27.094379 0.90913057 0.069076546 -0.41074324
-45.942432 3.5537767 22.232443 0.94830972 0.1127746 -0.29663205
-49.327374 5.355988 11.712678 0.96322757 0.16406538 -0.21277969
-49.811291 5.0597916 8.2487106 0.9234336 0.16227564 -0.34776005
-46.532669 1.7572389 19.343657 0.94868577 0.1731344 -0.26461232
-36.262165 2.6080127 38.176155 0.72875315 0.10881734 -0.67607516
-37.578075 2.9627469 36.870441 0.74937326 0.11645239 -0.65182716
-47.770947 1.6294619 15.418366 0.94852906 0.19914818 -0.24623686
-39.304855 1.7043544 34.717594 0.79354614 0.16935097 -0.58446974
-45.479504 1.333075 23.51376 0.94637465 0.13745214 -0.29237291
-40.937729 -0.38624221 31.45084 0.81996143 0.20156315 -0.53575712
-42.967201 1.5624878 29.063892 0.84848541 0.19485137 -0.49204212
-49.189526 3.969368 10.635328 0.95653367 0.20826404 -0.20413071
-50.727238 4.0013919 6.8629823 0.71411151 0.26634541 -0.64738315
-44.691662 1.6524941 25.660593 0.89069241 0.19049771 -0.41276827
-48.244007 3.0906763 13.500412 0.96119469 0.18210949 -0.20722167
-35.132809 -1.1425869 38.652023 0.70530099 0.21390936 -0.67586488
-43.409206 -0.13377842 27.180845 0.86327082 0.24146707 -0.44323492
-45.62505 -0.51939261 21.896692 0.93290597 0.22803569 -0.27872241
-36.059994 0.99930328 38.313194 0.71063673 0.13608082 -0.6902734
-49.349785 2.2341409 8.2123423 0.92680657 0.2585091 -0.27240151
-49.501968 1.9512086 6.9108171 0.78190255 0.43470851 -0.44682983
-42.116451 -0.54728967 29.409018 0.85177189 0.21729204 -0.47672716
-48.545975 1.2177395 10.498184 0.95699769 0.23475078 -0.17043294
-46.8908 -0.35980615 16.259174 0.9387815 0.24516596 -0.24203922
-47.886116 0.0067038471 13.392156 0.95172858 0.23212866 -0.20082086
-43.58783 -2.459235 25.631144 0.88297927 0.23436245 -0.4067207
-44.341087 -1.1683186 24.805891 0.88991416 0.2358321 -0.39043048
-42.598312 -2.3594987 27.649805 0.87615478 0.19910467 -0.43898764
-46.104687 -1.2287629 19.389181 0.9493922 0.21520874 -0.22877881
-38.096401 -2.7296309 34.599979 0.76119417 0.23174495 -0.60570437
-39.13736 -1.9197702 33.461884 0.79879069 0.20945154 -0.56397122
-46.653759 -2.6351457 14.617965 0.93065327 0.29252326 -0.2198057
-48.907894 0.2885496 6.0326962 0.75142622 0.41480383 -0.51312429
-34.444359 -2.8618109 38.883308 0.69500071 0.27098325 -0.66598964
-37.410542 -0.6046313 36.386726 0.74355203 0.22126558 -0.63100863
-40.674747 -2.4225836 31.082422 0.83071321 0.20504048 -0.51756537
-48.564484 0.13232268 8.4318142 0.93966901 0.30947822 -0.14575784
-39.690956 -3.2022238 32.4207 0.79393452 0.26031587 -0.54945755
-35.942261 -5.5014167 35.868156 0.72495002 0.29468378 -0.62258255
-42.236656 -3.2486451 28.169779 0.85501599 0.22922502 -0.46519199
-44.449318 -4.0809684 21.881229 0.91843504 0.27959773 -0.27982521
-47.426338 -2.3152988 11.987122 0.94042712 0.29299986 -0.17247559
-42.297813 -5.4178281 26.656872 0.86167723 0.31064463 -0.40126342
-43.852993 -4.0472822 24.052691 0.89937991 0.27991071 -0.33580619
-48.488552 -1.6452396 5.4008474 0.77473539 0.34294909 -0.53119779
-36.988941 -4.9511633 34.983406 0.71733165 0.30478045 -0.62653351
-38.175026 -4.7865157 33.727993 0.76790029 0.31168836 -0.55962437
-39.185139 -5.0626988 31.756369 0.74967891 0.23608102 -0.61826146
-45.589264 -3.3716831 19.308762 0.92992646 0.26684961 -0.25303778
-46.185028 -2.476845 17.000444 0.95539892 0.23965847 -0.17255944
-48.202427 -1.4159842 7.7512875 0.94600433 0.29084376 -0.14312825
-41.417412 -5.4359007 28.321823 0.87122929 0.28611177 -0.39887297
-47.732407 -1.6623824 10.437814 0.95558453 0.27238578 -0.11253587
-34.200508 -4.7016706 38.222202 0.66257215 0.30331206 -0.68483567
-45.619808 -4.731235 17.43858 0.92390996 0.3238233 -0.2037864
-46.216606 -4.9485083 13.024462 0.92316723 0.33600259 -0.18672068
-47.048752 -4.1354713 11.170424 0.93444115 0.32597056 -0.1433977
-47.607338 -2.716553 8.69065 0.94677645 0.298159 -0.12130787
-40.097885 -6.3931551 31.501326 0.58736271 -0.1204607 -0.80030888
-44.373108 -5.5629344 20.700888 0.90994638 0.3248491 -0.25781897
-41.106869 -5.9590364 29.195829 0.9786222 -0.20553753 0.0072696973
-42.52528 -6.5853653 25.033186 0.85799873 0.34648558 -0.37919131
-37.947567 -6.9444518 32.638271 0.75512099 0.36320719 -0.5457772
-38.910351 -6.6926932 31.078447 0.3806397 0.89050341 -0.24923314
-40.800518 -6.9246926 28.887974 0.44603664 0.8686347 -0.21569677
-45.855076 -5.0934305 15.1504 0.94698191 0.28103426 -0.15570779
-45.213688 -6.8718958 15.12206 0.92278701 0.35240561 -0.15580235
-34.502632 -6.1026845 37.31916 0.69258392 0.32690695 -0.64300805
-35.28056 -7.9707465 35.335316 0.71406913 0.34460947 -0.60938454
-38.491951 -7.2985363 30.829903 0.79648042 0.57586706 -0.18437977
-39.925678 -7.6126542 28.363194 0.24057385 0.53997403 -0.80656826
-46.852146 -5.0633993 8.703599 0.92436135 0.36940667 -0.095366597
-37.510437 -7.247889 28.669535 0.82716644 -0.41064098 -0.38362685
-47.708202 -4.4043331 4.962172 0.86925405 0.38174266 -0.31411785
-38.251133 -8.6342049 30.219215 0.97436595 -0.054307438 -0.21831544
-38.506916 -7.1122823 28.377794 0.13320105 0.23463573 -0.96291417
-43.756325 -6.4145374 22.123707 0.90360713 0.32260817 -0.28181213
-43.991291 -7.9373889 18.734377 0.90671182 0.35896629 -0.22139749
-46.020828 -6.8045936 10.817818 0.90991223 0.39902505 -0.11330824
-38.744469 -8.4364815 28.629025 0.79444987 -0.26708168 -0.54545093
-40.708675 -8.2900438 27.142996 0.79417318 0.39682007 -0.46024227
-44.472965 -9.0078745 14.283392 0.91352457 0.39449766 -0.099219188
-45.152035 -7.6594143 12.816658 0.9113102 0.37648192 -0.16665819
-32.538609 -9.3033791 37.632801 0.62640274 0.47565815 -0.61755067
-33.996094 -9.6215115 35.884018 0.67859185 0.39063078 -0.6220296
-37.418365 -8.9590464 31.695475 0.80917823 0.35281065 -0.46984589
-43.1745 -9.2800426 20.086012 0.89378631 0.38986248 -0.22170532
-46.34462 -6.9424052 5.8455486 0.89616543 0.42686829 -0.12112381
-46.517071 -7.3073139 4.0506124 0.78871852 0.51611418 -0.33398995
-36.627655 -8.8193264 33.292751 0.7403034 0.38744441 -0.54939765
-41.111576 -9.2913465 25.517895 0.83492053 0.37170291 -0.40588745
-36.969879 -11.712438 30.443316 0.73535609 0.43457466 -0.5199964
-40.026432 -11.009132 26.260597 0.80198485 0.4022648 -0.44159177
-42.21151 -9.6642246 22.92942 0.8675099 0.38441873 -0.3156721
-39.374569 -9.0296354 28.120598 0.71362883 0.18837222 -0.6747219
-36.245689 -10.826674 32.149914 0.74372685 0.41514057 -0.52395493
-44.16605 -9.4361515 15.913377 0.90090984 0.3894127 -0.19162229
-38.292473 -10.58622 29.595343 0.79390085 0.36652774 -0.48515862
-41.825893 -12.046191 20.017921 0.85556245 0.46846241 -0.22035407
-45.63623 -8.0345592 8.0355291 0.90436143 0.4206081 -0.072243541
-34.261604 -11.062677 34.598248 0.68272907 0.43508425 -0.58701164
-41.384975 -11.273804 22.930353 0.83234715 0.44317064 -0.33286321
-42.541306 -11.304871 18.548529 0.87484205 0.43374789 -0.21567155
-40.530399 -13.508454 21.733734 0.81657887 0.51349247 -0.26367483
-44.742466 -9.5339727 10.605555 0.89895493 0.42605087 -0.10178685
-32.645077 -11.680108 35.764301 0.63555795 0.45851496 -0.62115228
-43.035706 -11.729643 15.663855 0.86292374 0.46991518 -0.18585551
-43.899494 -10.944324 11.122741 0.87930459 0.46389338 -0.1078252
-45.652702 -8.9974203 3.6785393 0.86010116 0.46723035 -0.20474796
-32.331448 -14.418842 33.984272 0.6248017 0.51349163 -0.58817434
-38.52486 -13.440089 26.166725 0.75248182 0.48465604 -0.44595921
-44.406204 -10.649302 7.1667252 0.88115329 0.46957242 -0.05541328
-42.989765 -12.5005 12.190252 0.8642568 0.49625939 -0.082382321
-44.613331 -10.908689 2.3062613 0.81923288 0.56550938 -0.095166199
-34.678513 -13.384154 32.27055 0.69065708 0.48838019 -0.53336442
-43.528839 -11.137165 14.204057 0.88758337 0.4532887 -0.082007557
-41.519726 -13.271165 18.199055 0.83973432 0.50069654 -0.21011727
-43.852627 -11.755411 8.7471237 0.87262017 0.48446044 -0.061904445
-17.265774 -33.835415 6.7400732 0.30776903 0.95099026 0.029929273
-44.838223 -10.23302 5.2771783 0.87300986 0.48337743 -0.064807981
-35.827496 -14.714675 29.233526 0.72403646 0.49692577 -0.47836813
-39.419571 -13.736648 24.178028 0.78497773 0.51661545 -0.34193346
-42.90641 -13.230116 7.063333 0.85444063 0.51837677 -0.034881264
-41.823086 -14.244409 14.711767 0.84700352 0.51305819 -0.13912724
-43.547455 -12.253425 2.5889854 0.83230811 0.55307341 -0.037052486
-41.002224 -15.602838 13.289488 0.83117855 0.55284446 -0.059205208
-41.880547 -14.323214 12.520429 0.85343695 0.51678973 -0.067628779
-34.563133 -16.135109 29.59724 0.67995119 0.5706737 -0.46043229
-39.887341 -15.248374 19.828142 0.81110108 0.53856325 -0.22817673
-41.385208 -15.544213 9.5519209 0.83127427 0.55383629 -0.047418229
-38.918083 -16.106304 21.287689 0.78822088 0.55876017 -0.25786608
-37.365688 -15.321359 26.088085 0.72009766 0.56248844 -0.40628335
-42.704643 -13.509618 9.0546293 0.85131979 0.52063304 -0.064775303
-43.134357 -13.228712 4.2216535 0.8493917 0.52775294 -0.0032333669
-35.355541 -18.465532 24.923298 0.69053495 0.6081652 -0.39153096
-38.544094 -17.391008 18.945398 0.78571236 0.57963902 -0.21604353
-42.245419 -14.505675 5.8310366 0.82576466 0.56296694 -0.034365106
-32.929382 -16.267771 31.466463 0.6312412 0.57193762 -0.523853
-39.972103 -16.977919 14.523936 0.81702602 0.56758893 -0.1015453
-41.57325 -15.352378 6.9440022 0.8204779 0.57130927 -0.02053516
-43.025021 -13.564802 0.64173961 0.73458415 0.61268789 -0.29154691
-33.764668 -17.852516 28.390707 0.65594608 0.60557967 -0.45056409
-41.922607 -14.724765 1.7721258 0.81223059 0.58247864 -0.03162599
-41.614384 -15.29816 4.2310858 0.79772115 0.60271013 0.019532386
-30.382874 -19.171923 31.159428 0.60379487 0.61119616 -0.51173341
-37.539425 -17.089605 22.909498 0.73515016 0.59573555 -0.3235018
-37.367802 -18.869173 19.503918 0.75069904 0.61477089 -0.24188347
-39.898975 -16.537636 16.70503 0.80678719 0.55526358 -0.20193242
-40.344929 -16.786631 11.72485 0.82512724 0.56155717 -0.061793379
-38.88224 -18.420147 14.72078 0.77910525 0.61412799 -0.1258646
-41.66732 -15.502777 -0.1988492 0.61248791 0.68606263 -0.39265329
-36.180031 -19.520086 20.797878 0.71349794 0.63853186 -0.28844008
-38.195869 -18.892235 16.250633 0.76657909 0.61423194 -0.18728489
-39.915413 -17.470476 3.2887151 0.78422379 0.61922115 0.039475173
-40.712444 -16.380487 1.5773896 0.77190149 0.63574159 -0.00086049316
-32.937008 -19.178688 27.877934 0.64040649 0.63797212 -0.42763445
-33.413208 -20.228289 25.337671 0.64925385 0.657511 -0.38229412
-39.639576 -17.927059 10.074296 0.8182202 0.57396472 -0.032866586
-40.554432 -16.692307 6.217032 0.81101662 0.58492035 0.010969096
-35.342155 -19.548601 23.082439 0.69560623 0.64405227 -0.31832176
-37.687546 -19.899179 14.194584 0.75677484 0.64434803 -0.11003396
-40.910912 -16.766108 -1.1669935 0.50355029 0.66338271 -0.55349845
-36.70689 -20.42691 16.955631 0.75299037 0.63817573 -0.16042838
-39.27758 -18.376593 11.844882 0.78867954 0.6107325 -0.070642933
-30.834499 -20.116934 29.273249 0.60426283 0.64393198 -0.4692739
-38.812782 -19.101456 9.4430599 0.76926976 0.63869381 -0.017158065
