# .PCD v0.7 - Point Cloud Data file format
VERSION 0.7
FIELDS x y z normal_x normal_y normal_z
SIZE 4 4 4 4 4 4
TYPE F F F F F F
COUNT 1 1 1 1 1 1
WIDTH 726
HEIGHT 1
VIEWPOINT 0 0 0 1 0 0 0
POINTS 726
DATA ascii
-53.676651 7.59238 -65.751259 0.22102845 -0.0036731598 0.97526044
-45.500195 6.4109406 -67.17057 0.074766979 -0.032167315 0.99668205
-58.371815 7.5101171 -64.478241 0.29731184 -0.0052293772 0.95476609
-48.35778 4.2311645 -66.905563 0.16986018 0.043943517 0.98448795
-63.543056 7.8298893 -62.510429 0.31682989 0.052845318 0.94700909
-56.574524 5.5509887 -64.920738 0.28569251 0.0099731283 0.95826942
-45.346539 4.1695476 -67.391357 0.096887372 0.016465349 0.99515915
-43.81995 4.4479365 -67.45652 0.063566558 0.02419785 0.99768418
-43.44595 6.0999904 -67.50441 0.1135095 -0.0061365142 0.99351794
-41.218369 5.7336116 -67.706085 0.03033437 0.024632528 0.99923623
-61.651958 6.102345 -63.240814 0.37350661 0.01085341 0.92756402
-57.733433 5.0028658 -64.572815 0.28679317 0.018707795 0.95780981
-26.835415 3.5243189 -66.27346 -0.20338662 0.0079971002 0.97906584
-63.785332 4.835587 -62.365501 0.39816308 0.04955364 0.91597527
-53.335377 4.1281266 -65.833107 0.24317557 0.014808349 0.9698692
-50.395222 4.9368949 -66.582397 0.20523328 0.031236775 0.9782145
-37.831612 4.3732195 -67.65477 -0.012699244 0.013843986 0.99982345
-59.902573 4.7642808 -63.981987 0.32496667 0.039689463 0.94489229
-56.034126 3.78526 -65.09259 0.29227868 0.053345483 0.95484424
-50.937428 2.7707946 -66.355965 0.19559793 0.055309985 0.97912323
-43.091293 2.7879701 -67.433235 0.049447801 0.056246959 0.99719161
-40.167599 3.7598603 -67.529663 0.028225876 0.036801923 0.9989239
-46.123322 1.7234958 -67.156502 0.12326761 0.082908601 0.988904
-40.010006 2.4455147 -67.569618 0.013099439 0.071000651 0.99739021
-34.271248 2.672502 -67.384117 -0.094731413 0.047214165 0.99438262
-41.832417 1.4363054 -67.377228 0.033968259 0.083188608 0.99595475
-37.257965 2.4466901 -67.484032 -0.033615891 0.06148522 0.99754179
-29.781555 3.6089685 -66.78215 -0.15793979 0.026103357 0.9871037
-61.468895 4.0085387 -63.306366 0.37895337 0.059852719 0.92347825
-58.000889 3.155127 -64.432838 0.30492148 0.090431392 0.94807434
-53.443748 2.5476046 -65.839211 0.26433551 0.07803122 0.96126884
-35.547806 1.0224208 -67.398979 -0.053732354 0.09359853 0.9941591
-31.798073 1.6122415 -66.982002 -0.13018779 0.05622106 0.98989409
-65.988403 4.6793466 -61.324047 0.24662392 0.1622224 0.95543736
-55.099358 1.2322457 -65.067665 0.30062285 0.083592966 0.95007271
-51.639576 1.0243698 -66.040939 0.21171375 0.10728181 0.97142571
-60.463684 2.5232201 -63.48769 0.3295196 0.1075882 0.93799871
-48.229843 2.2904367 -66.782181 0.17276394 0.074060947 0.98217493
-43.709438 0.12308762 -67.175468 0.065193191 0.089273021 0.99387133
-64.703369 2.8265786 -61.786411 0.39044619 0.068482697 0.91807514
-49.53558 0.62990093 -66.467865 0.17863618 0.092716396 0.97953707
-30.774994 0.38352549 -66.822121 -0.14655566 0.105697 0.98353928
-29.051014 1.1537639 -66.606056 -0.18620585 0.085103326 0.97881806
-63.365246 2.7927442 -62.331886 0.39555928 0.096795745 0.91332549
-56.906235 1.8809245 -64.600487 0.29326278 0.079594471 0.95271277
-61.301815 0.95730203 -63.039127 0.36867991 0.10358591 0.92376679
-67.176025 3.0468204 -60.708035 0.15266159 0.2482834 0.95658237
-59.965302 0.23000398 -63.423424 0.33502039 0.10858891 0.93593258
-57.952267 -0.1397894 -64.083923 0.32714465 0.10124252 0.9395352
-42.637196 -1.2274975 -67.132217 0.068588205 0.13622457 0.9883008
-62.283722 0.17049655 -62.53949 0.37101713 0.098789342 0.92335629
-55.796757 0.18991636 -64.925644 0.29422086 0.076092906 0.95270354
-45.635105 -0.91287464 -66.912086 0.09895321 0.13093969 0.98643959
-37.996185 0.67758936 -67.335968 0.0020444389 0.070327505 0.99752188
-47.059086 -0.05588267 -66.764786 0.15975873 0.095138513 0.98256087
-65.376221 0.68589139 -61.371098 0.41089159 0.14241621 0.90049195
-63.482113 0.67850691 -62.058933 0.39089361 0.1044976 0.91448474
-66.441246 0.075870521 -60.594433 0.44372386 0.16487935 0.8808654
-40.536865 -0.6397118 -67.299034 0.022948759 0.091715857 0.99552077
-38.087852 -1.5772065 -67.248108 -0.023598168 0.13933091 0.98996466
-34.701153 -2.0254352 -66.887794 -0.07783588 0.14670551 0.98611313
-53.549282 -0.56622654 -65.432777 0.25517297 0.11825063 0.95963717
-49.516121 -1.8122658 -66.195419 0.1899574 0.12259887 0.97410768
-64.70359 -2.2726264 -60.984097 0.41613302 0.14768946 0.89722961
-63.991211 -0.30974758 -61.598629 0.44129145 0.17241482 0.88064468
-56.181881 -1.5825042 -64.525299 0.2995984 0.14788395 0.94253445
-37.760071 -3.5896702 -66.806557 -0.024723444 0.15816571 0.98710299
-60.567829 -1.4892523 -62.997589 0.36040238 0.15954992 0.91905057
-52.110954 -3.1967263 -65.464142 0.23504214 0.16097349 0.95856285
-44.665428 -3.2526066 -66.581146 0.07638184 0.15596347 0.98480517
-41.131149 -3.054112 -66.884705 0.026440542 0.1630232 0.98626786
-63.205986 -1.4657234 -62.027298 0.40912393 0.1588321 0.89854884
-46.941338 -2.9888997 -66.514954 0.1221541 0.14295408 0.98216218
-58.891243 -3.3866088 -63.325386 0.35223311 0.18849851 0.91673344
-50.988029 -2.4187729 -65.797577 0.21242869 0.13096005 0.9683612
-42.683182 -4.219265 -66.626709 0.05512074 0.1795788 0.98219812
-33.922974 -4.1395869 -66.562782 -0.1078897 0.1618942 0.98089248
-66.214706 -2.3003578 -60.415249 0.41952172 0.15341964 0.89468652
-61.918526 -2.7880163 -62.082333 0.35204792 0.20252153 0.91380924
-58.157845 -2.1819654 -63.782322 0.3208093 0.13683191 0.93720776
-54.100349 -3.4025002 -64.837975 0.26513565 0.15403824 0.95182735
-51.201004 -5.4814124 -65.23999 0.19797832 0.21919259 0.95538437
-49.411972 -4.7342963 -65.69101 0.1865458 0.20587598 0.96063298
-48.062878 -4.0181475 -66.170059 0.18806934 0.18577385 0.96442622
-44.155876 -5.4401288 -66.321022 0.089629494 0.18512399 0.97861934
-36.21365 -4.5437183 -66.659439 -0.051948342 0.15676741 0.9862684
-70.321846 -3.8015394 -57.827522 -0.025774887 0.45266145 0.89130986
-66.90934 -3.5554295 -59.729839 0.4701857 0.19095135 0.86166292
-62.84436 -3.5430148 -61.665386 0.39061207 0.19491278 0.89968395
-32.863049 -4.9634342 -66.21051 -0.095313817 0.15635385 0.98309147
-60.081665 -3.9988699 -62.669548 0.37225959 0.19859932 0.90663171
-52.814312 -5.8628073 -64.725082 0.24943048 0.2097927 0.94539481
-39.091763 -5.1308851 -66.644058 0.014599618 0.17393637 0.98464864
-69.340973 -2.4985175 -58.660206 0.35995588 0.24208975 0.90101296
-65.587952 -4.4299445 -60.253742 0.41942659 0.20001473 0.88548028
-47.140343 -5.946445 -65.8451 0.15296327 0.22152728 0.96308255
-58.37846 -5.9432135 -62.899235 0.31297904 0.22292255 0.92322791
-57.030014 -5.0749087 -63.619629 0.32429126 0.21673591 0.92079359
-54.92934 -5.1860342 -64.355301 0.30060408 0.20554559 0.93133676
-37.016972 -6.374836 -66.355675 -0.0358225 0.22003028 0.97483504
-71.136688 -3.5765262 -58.33094 -0.60502923 0.74155074 0.28990027
-67.178932 -5.1241016 -59.232872 0.44847205 0.20560007 0.8698284
-62.723743 -4.6393447 -61.453701 0.37916568 0.1844999 0.90674871
-46.953949 -8.7529612 -65.194801 0.15979861 0.22787312 0.96048856
-39.933876 -6.4720526 -66.273407 0.031061029 0.20932539 0.97735256
-49.728687 -6.7613902 -65.1483 0.17781843 0.22094548 0.95893884
-45.515461 -7.5200367 -65.743904 0.12140262 0.21872139 0.96820569
-69.21888 -5.2061067 -58.197891 0.46299466 0.20818318 0.86156589
-63.532967 -5.9332762 -60.851795 0.40565622 0.22228251 0.8865853
-55.865074 -6.6251059 -63.419868 0.3180635 0.24284789 0.91643906
-54.448833 -7.315249 -63.925575 0.28587314 0.24878107 0.92541051
-64.916466 -6.530725 -60.001209 0.43031788 0.24157557 0.86975157
-39.944664 -8.1363134 -65.929352 0.013917872 0.21164088 0.97724837
-37.858589 -8.5399036 -65.84565 -0.039123625 0.25238445 0.9668358
-70.21032 -6.1088371 -57.327991 0.46859857 0.27052182 0.84097171
-61.645138 -6.9410996 -61.431301 0.36943164 0.21279623 0.9045651
-55.795357 -8.416584 -63.139843 0.32243493 0.18666822 0.92800361
-48.896637 -9.3973761 -64.784355 0.18777332 0.2735745 0.94334418
-44.569588 -10.015541 -65.262123 0.10102782 0.2946268 0.95025706
-42.722149 -8.1344261 -65.873726 0.05054893 0.22455527 0.97314942
-71.554482 -5.2468867 -57.113613 -0.26728249 0.52633643 0.80717415
-67.04554 -7.1525006 -58.734749 0.44025487 0.25531578 0.86080748
-62.44783 -8.0461617 -60.745884 0.40072021 0.2535502 0.88041788
-57.62397 -8.1778898 -62.648853 0.30956888 0.22660547 0.92348105
-71.838905 -6.9962707 -56.092319 0.31076372 0.37376407 0.87391436
-64.525429 -8.5057421 -59.668549 0.42338338 0.26950917 0.86493438
-60.034611 -8.4041996 -61.693432 0.35565081 0.26034164 0.89762729
-59.410053 -6.9239316 -62.278843 0.35328162 0.20308456 0.91320789
-52.076332 -8.4004049 -64.285744 0.22889359 0.25147539 0.94040829
-72.712059 -7.8000326 -55.591137 -0.12597583 0.56044513 0.81855446
-51.819195 -10.275087 -63.745537 0.2303912 0.29293671 0.92795902
-46.535702 -10.185407 -64.885178 0.1467782 0.29856941 0.94303364
-61.638386 -9.9775085 -60.539955 0.38472372 0.29232162 0.87552029
-55.120975 -10.3119 -62.936806 0.28128332 0.28131613 0.91746438
-49.030247 -11.969742 -63.847019 0.19252132 0.29921702 0.93456125
-65.682816 -9.9679642 -58.592354 0.45370242 0.28211743 0.84531879
-69.374969 -8.8945341 -56.923435 0.48066559 0.29132545 0.82709736
-67.10276 -9.8493938 -57.751488 0.45728385 0.29723361 0.83817875
-68.468552 -8.0036926 -57.843899 0.45452157 0.28143966 0.84510469
-60.078583 -11.662278 -60.642258 0.35524929 0.31313041 0.8807652
-57.91098 -10.396758 -61.874329 0.33931279 0.29329666 0.89378065
-50.216404 -13.183589 -63.208839 0.21399368 0.3291223 0.91972017
-57.714142 -12.57905 -61.138733 0.33662188 0.33421057 0.88033468
-46.772396 -11.740492 -64.277191 0.12318648 0.32324508 0.93826318
-56.419518 -13.109429 -61.498917 0.30127382 0.33587116 0.89242625
-53.53347 -12.812834 -62.518124 0.25440821 0.33463642 0.90735602
-71.622238 -9.7711802 -55.310024 0.47706994 0.31320667 0.82116121
-66.235275 -11.604896 -57.76395 0.45104471 0.31933185 0.83341819
-59.148064 -13.696701 -60.264145 0.33138964 0.34580436 0.87783843
-73.014694 -9.4499826 -54.616467 0.1684384 0.49869561 0.85025364
-67.89283 -11.801565 -56.66481 0.46854544 0.33738926 0.81647629
-63.938896 -13.351401 -58.172707 0.43741319 0.35661805 0.82552606
-63.417622 -11.516935 -59.146896 0.40751427 0.31179494 0.85832167
-47.739899 -14.101863 -63.49966 0.15709957 0.35258693 0.92249775
-45.959419 -14.569409 -63.415707 0.10561427 0.35927728 0.92723542
-43.865372 -14.972525 -63.406544 0.076011509 0.37054464 0.92569911
-72.650589 -12.642561 -53.421314 0.49780673 0.36373413 0.78732842
-73.851212 -10.81543 -53.727272 0.086066149 0.58563399 0.80599338
-69.751045 -10.882869 -56.013977 0.46612597 0.31215128 0.82782131
-61.463188 -12.677049 -59.585533 0.38986784 0.31792447 0.86424941
-71.289764 -12.290895 -54.505764 0.50795871 0.34714955 0.78833055
-62.445385 -14.487282 -58.535397 0.41280967 0.36074787 0.83633077
-56.502178 -14.789351 -60.851364 0.33008617 0.37253794 0.86732841
-52.759521 -15.934598 -61.473801 0.27328035 0.39428788 0.87741375
-51.21283 -15.233595 -62.22364 0.19994354 0.37589341 0.90483522
-69.599876 -13.244126 -55.139797 0.46787935 0.38141519 0.7972523
-60.503647 -15.122167 -59.155022 0.35819185 0.38398421 0.85103154
-54.763168 -15.790581 -60.883961 0.27558732 0.39745745 0.87525958
-48.615395 -14.624517 -62.852982 0.17484041 0.40597481 0.89700353
-66.160294 -13.439683 -56.956928 0.44229156 0.3648864 0.81928998
-75.167297 -12.264089 -52.741127 -0.52914119 0.66154212 0.53138655
-61.695755 -16.987255 -57.608425 0.39248979 0.43279898 0.81156439
-58.370975 -15.77834 -59.583492 0.33328658 0.38429081 0.86095333
-71.661354 -14.240868 -53.273872 0.48695922 0.41710734 0.76739311
-57.463432 -17.098743 -59.365528 0.32194203 0.41796365 0.8495056
-51.655903 -17.708389 -60.940601 0.21350123 0.426615 0.87887245
-47.931156 -16.102739 -62.454693 0.16981016 0.40151069 0.89997429
-53.653755 -17.328619 -60.467819 0.26774991 0.41846046 0.86787152
-74.509682 -13.604736 -51.542503 0.30913562 0.52078557 0.79574966
-45.49461 -16.601549 -62.65686 0.10482631 0.40502816 0.90827507
-43.827095 -17.57011 -62.310223 0.086552687 0.43634146 0.8956086
-66.98484 -15.20889 -55.758926 0.46899801 0.37920582 0.79764897
-59.770535 -17.012789 -58.436386 0.34734118 0.42363808 0.83659124
-73.464699 -14.577911 -52.096996 0.55139101 0.37166873 0.74688035
-73.483475 -15.969881 -51.163818 0.50919664 0.45666713 0.72950244
-68.459442 -15.12734 -54.789375 0.4742758 0.39914066 0.78469694
-63.859558 -16.440813 -56.816299 0.42424479 0.39849308 0.8131541
-59.616978 -18.80089 -57.608143 0.3589159 0.44677556 0.81949431
-56.734077 -19.005049 -58.681099 0.31638974 0.4465645 0.83694547
-71.658508 -17.335732 -51.487675 0.4924272 0.44581142 0.74750763
-52.558067 -19.261333 -59.899696 0.25053203 0.45346451 0.85533834
-46.526283 -18.888369 -61.389267 0.13030703 0.44644263 0.8852734
-67.495087 -16.939905 -54.45723 0.49337852 0.43172705 0.75510883
-54.771519 -18.847324 -59.454945 0.27408722 0.43754688 0.8564046
-49.607372 -21.100298 -59.679382 0.18106246 0.4698289 0.86398911
-70.174187 -15.871495 -53.389935 0.49066991 0.42449936 0.76094902
-49.639439 -19.069883 -60.719601 0.18807858 0.43846774 0.87884724
-55.618908 -21.393555 -57.730385 0.28833914 0.48697385 0.82444942
-75.814774 -15.75845 -49.463554 0.27382803 0.57931495 0.76773196
-65.513519 -17.868126 -55.229717 0.44306663 0.45317414 0.77351487
-44.386826 -20.430223 -60.762497 0.084375419 0.46041557 0.88368452
-67.186485 -19.097725 -53.348034 0.48871526 0.46635166 0.73734212
-52.311737 -22.360386 -58.286606 0.25702861 0.49495426 0.8300342
-51.489326 -21.010437 -59.233406 0.21747062 0.46533674 0.85800242
-69.050179 -17.733271 -53.030792 0.48652074 0.44634667 0.75104743
-63.487667 -18.647743 -55.772469 0.41214713 0.45357013 0.79019547
-62.400368 -19.8151 -55.73196 0.41103005 0.45001709 0.79280442
-77.191513 -17.819405 -48.066864 -0.63240939 0.62184894 0.46191153
-76.225266 -18.357922 -47.479736 0.33158427 0.58266199 0.74199522
-46.627609 -21.743382 -59.900715 0.12785646 0.47603199 0.87008405
-72.97509 -18.0546 -50.236706 0.51477283 0.48100817 0.70967603
-61.634506 -21.703808 -55.016937 0.40930268 0.47280407 0.78033817
-46.798473 -22.748581 -59.216782 0.15027475 0.5282374 0.835693
-74.614182 -18.232811 -48.810726 0.54773867 0.45295221 0.70343202
-65.552315 -21.493586 -52.917458 0.45983931 0.48122185 0.74630648
-63.816395 -20.932262 -54.186451 0.42883402 0.46817032 0.7726047
-45.320381 -23.085594 -59.303223 0.096836619 0.50698769 0.85649639
-70.100471 -19.932281 -51.03825 0.49042425 0.48577946 0.7235347
-68.446716 -19.781456 -52.058502 0.45758763 0.47351855 0.75259131
-50.372673 -22.850811 -58.468872 0.20305273 0.52260739 0.82804054
-48.636284 -23.149729 -58.666416 0.16992152 0.52546841 0.83367246
-71.658401 -19.80689 -49.976318 0.51315093 0.48076671 0.71101302
-58.10807 -21.678757 -56.570644 0.32442012 0.49393415 0.80670977
-75.247688 -19.630466 -47.478107 0.53972006 0.51293373 0.66753376
-74.212067 -19.625658 -48.173653 0.49760804 0.51026899 0.70143557
-60.028996 -22.093552 -55.602234 0.34154758 0.51167881 0.7883718
-58.025311 -23.446728 -55.33213 0.32270649 0.53413379 0.78138447
-56.177689 -23.396402 -56.263382 0.32331619 0.51039046 0.79684901
-54.201294 -22.617966 -57.377785 0.29382327 0.49750215 0.81618595
-63.635826 -22.870956 -53.189915 0.43865582 0.50601172 0.74265283
-54.373009 -24.164474 -56.489902 0.28341728 0.54181236 0.79127371
-69.880524 -21.81053 -49.682312 0.51075208 0.52055585 0.68421775
-67.214668 -23.129692 -50.744583 0.46579319 0.50978827 0.72329301
-62.172314 -24.489256 -52.860497 0.39660621 0.551305 0.73400706
-76.693596 -20.350813 -45.564434 0.45945722 0.58276916 0.6702829
-46.771355 -25.472973 -57.51741 0.13514447 0.56454122 0.81426603
-56.817825 -25.255535 -54.76009 0.328563 0.54711485 0.76987773
-73.880653 -20.734659 -47.511097 0.53280741 0.51730639 0.66970921
-58.112171 -25.44751 -54.022552 0.3336561 0.56061137 0.7578842
-52.346779 -24.70985 -56.722969 0.22766151 0.55071557 0.80304587
-49.980789 -25.654125 -56.698711 0.20839675 0.54288769 0.81353778
-68.394753 -22.247864 -50.612026 0.49531329 0.49760893 0.71207452
-68.438469 -24.462841 -48.895611 0.50081342 0.55247247 0.66630328
-65.485466 -23.661238 -51.432087 0.45807391 0.54160565 0.70486289
-53.407593 -26.320711 -55.208099 0.27886119 0.57868022 0.76639789
-71.828346 -22.021669 -48.282837 0.51089889 0.51939994 0.68498617
-60.512436 -25.161026 -53.220203 0.34619066 0.56572562 0.7484026
-77.078125 -22.999249 -42.958103 0.51824421 0.58382523 0.62495679
-76.146614 -21.864124 -44.842667 0.53570938 0.53251034 0.65532297
-61.614716 -26.411348 -51.406292 0.39451209 0.58874243 0.70550865
-48.908226 -26.220745 -56.62191 0.17324771 0.57342482 0.80073047
-73.874786 -22.457041 -46.220448 0.53876007 0.52607328 0.65801561
-72.71064 -24.175365 -45.679863 0.52070761 0.56142378 0.64316946
-72.046814 -23.44315 -46.90958 0.51715362 0.5594331 0.64775521
-69.820305 -24.155991 -47.973351 0.49824333 0.55291355 0.66786247
-66.88987 -24.847984 -49.443729 0.4544003 0.55226189 0.69894725
-63.410591 -25.600246 -51.222378 0.40963686 0.5729869 0.70984757
-55.814716 -26.347126 -54.241165 0.29164103 0.5861907 0.7558611
-51.377472 -26.880138 -55.481098 0.22578628 0.58316642 0.78034449
-74.854652 -23.241415 -44.814564 0.54401916 0.56300128 0.62215167
-64.71051 -25.953016 -50.152042 0.45956051 0.55312186 0.69488156
-49.041348 -28.635077 -54.694057 0.15541066 0.61693811 0.77151465
-58.187668 -27.303728 -52.611969 0.32480997 0.58486438 0.74325782
-51.085209 -28.721621 -54.126492 0.22790633 0.62025201 0.75056392
-77.110748 -24.730658 -41.310024 0.52634323 0.61385262 0.58834326
-75.610275 -24.284575 -43.099819 0.5490225 0.58136547 0.60049021
-70.844681 -25.149271 -46.367775 0.4982762 0.58207518 0.64258015
-68.635284 -25.864393 -47.314213 0.49670574 0.59479314 0.63206375
-67.872627 -26.730125 -47.191055 0.51173568 0.58469719 0.62948859
-55.360878 -27.80109 -53.306519 0.2950713 0.60148281 0.7423957
-54.74337 -29.462408 -52.148277 0.28195637 0.64020145 0.71459264
-60.513687 -27.463943 -51.295731 0.38671362 0.57544643 0.72063446
-58.323593 -28.852667 -51.230022 0.31112301 0.62836426 0.71299434
-63.573856 -27.827215 -49.291561 0.41568404 0.60443175 0.67960948
-57.06163 -29.901344 -50.873276 0.31044924 0.64365894 0.69951731
-52.879059 -28.884127 -53.445457 0.27030382 0.61386871 0.74168801
-69.581078 -27.376564 -45.180889 0.49779597 0.60675305 0.6197176
-66.227097 -26.334179 -48.841393 0.47346756 0.57594931 0.66641647
-73.533592 -25.574585 -43.805725 0.52612007 0.59107453 0.61141521
-71.07338 -26.761547 -44.649845 0.49152288 0.61465901 0.61692756
-68.324608 -27.896547 -45.65773 0.50971067 0.59660929 0.61988097
-48.503914 -30.92206 -52.92308 0.12869443 0.65660799 0.74317133
-62.203602 -28.690659 -49.329525 0.41722265 0.59851348 0.68389094
-75.002808 -25.828453 -42.116447 0.54954827 0.60004097 0.5813325
-67.579872 -28.794617 -45.460342 0.50490886 0.61666465 0.60397995
-66.322571 -28.101585 -47.150169 0.46845841 0.6126917 0.63651836
-59.674511 -28.835938 -50.628143 0.36140791 0.61523616 0.70062029
-73.532143 -26.783535 -42.461941 0.52803618 0.6250912 0.5748381
-70.732391 -28.700308 -42.857018 0.49780026 0.63929677 0.58608413
-53.015209 -30.659773 -51.726379 0.27140182 0.64887404 0.71084708
-50.529385 -30.897884 -52.519287 0.21338485 0.6584006 0.72178632
-72.187469 -27.838217 -42.681454 0.52303618 0.63537639 0.56809324
-64.250595 -29.476246 -47.185646 0.43850523 0.62648195 0.64438617
-63.312927 -30.958101 -46.451992 0.43426463 0.64746451 0.62626189
-59.707169 -30.699888 -48.82288 0.32473841 0.66182548 0.67567152
-52.723213 -31.985659 -50.596596 0.26778224 0.67035878 0.69203454
-61.277092 -30.259079 -48.462173 0.38756368 0.65098554 0.65269607
-56.424011 -31.978535 -49.202656 0.29466644 0.66889215 0.68246251
-75.370377 -27.433077 -40.12719 0.5317862 0.63785005 0.55709124
-73.521347 -28.439734 -40.52047 0.52635562 0.64924449 0.54902768
-69.407455 -28.917772 -43.81308 0.50419408 0.62736118 0.59346962
-66.220947 -30.07131 -45.264332 0.46719629 0.64268404 0.60719424
-77.217445 -26.612957 -39.142406 0.54993159 0.6320703 0.54595083
-68.521133 -29.989897 -43.333851 0.49353531 0.6564557 0.57051635
-62.866123 -32.035397 -45.490555 0.42286038 0.6766662 0.60275364
-58.840992 -32.048016 -47.849072 0.32979757 0.67137045 0.6636982
-60.241947 -32.072102 -47.188545 0.3637152 0.68051356 0.63609165
-58.402878 -33.680481 -46.372726 0.3284249 0.71177709 0.62089491
-60.645885 -33.68959 -45.11187 0.37022623 0.71159208 0.59713417
-55.451492 -33.093071 -48.415165 0.29028425 0.6904878 0.66254193
-76.670799 -29.103785 -36.757114 0.55859059 0.65705609 0.50621521
-72.044563 -29.845093 -40.372906 0.52827597 0.65647674 0.53848201
-70.832222 -30.768286 -40.496731 0.50397879 0.66944367 0.54575688
-68.754387 -31.334959 -41.467949 0.48544195 0.68116415 0.54805249
-65.051056 -31.375443 -44.609444 0.44410759 0.6795935 0.58388448
-65.697319 -32.696007 -42.639217 0.46053612 0.68400359 0.5657258
-74.924896 -30.23534 -36.986938 0.51242459 0.69401658 0.50572926
-74.401772 -29.090883 -39.012383 0.5115099 0.66975212 0.53832114
-67.127586 -33.256172 -40.532089 0.49421722 0.68553537 0.53459376
-67.213211 -31.110447 -43.268848 0.49182627 0.67176467 0.5539307
-63.268078 -33.736374 -43.255501 0.4240942 0.7082026 0.56444055
-61.784363 -32.741566 -45.474873 0.4075985 0.68524611 0.60357374
-78.183868 -29.567345 -34.186691 0.5485732 0.69893116 0.4588711
-76.931084 -30.274887 -34.738743 0.57270443 0.6804499 0.45716247
-73.413071 -30.429464 -38.300636 0.51605332 0.68083018 0.51976848
-73.09713 -31.334181 -37.315155 0.52633494 0.68944407 0.49763283
-70.994087 -32.007557 -38.65416 0.51279438 0.69179583 0.50839001
-68.806686 -32.146732 -40.555321 0.48520648 0.68129539 0.54809785
-56.727169 -34.471287 -46.35701 0.31599039 0.71855146 0.61954325
-75.820328 -30.823404 -35.278042 0.52488041 0.71295327 0.46497121
-60.763935 -35.408432 -42.933868 0.38062018 0.73988205 0.55470973
-56.118774 -35.693016 -45.174702 0.30609813 0.74387169 0.59410357
-77.319336 -31.225424 -32.786777 0.5694586 0.70152175 0.42846712
-78.92894 -30.308622 -31.993744 0.50819689 0.74064612 0.43952164
-72.825531 -32.61274 -35.763058 0.52511871 0.71167833 0.46665213
-69.578278 -33.055428 -38.613579 0.49529701 0.70198733 0.51175636
-68.183128 -33.261959 -39.567307 0.47183347 0.7129423 0.51873529
-65.928947 -34.009079 -40.716442 0.4602879 0.72348958 0.5144881
-70.912788 -33.390167 -36.74345 0.52289498 0.708606 0.47377035
-63.441654 -34.698528 -41.755737 0.42538121 0.7345441 0.52867359
-78.765602 -31.597935 -30.098753 0.52284902 0.75088459 0.40348628
-74.328598 -31.905487 -35.185642 0.51048267 0.72111148 0.46840757
-55.180511 -36.942787 -44.057922 0.28935102 0.76193398 0.57942438
-72.118828 -34.030003 -34.333973 0.51879394 0.73241138 0.44093806
-58.547611 -37.330132 -41.615604 0.3506338 0.77102238 0.53158307
-58.48085 -36.145924 -43.300007 0.3339799 0.74776328 0.57385325
-77.205238 -32.240639 -31.14649 0.55758959 0.7355026 0.38487637
-69.181152 -34.152077 -37.514935 0.48834416 0.73940587 0.46346414
-74.693481 -33.15498 -32.729572 0.5119729 0.74608463 0.42572471
-64.635597 -35.424553 -39.807549 0.44965947 0.73317915 0.51015174
-57.046265 -37.570644 -42.208408 0.31994843 0.76665717 0.55665952
-76.007195 -32.546055 -32.205097 0.52549833 0.73201352 0.43359864
-71.347351 -34.891945 -33.755268 0.49709934 0.759628 0.41935366
-68.956581 -35.134342 -35.940357 0.48487854 0.76372427 0.42616671
-66.146385 -35.852798 -37.712833 0.46473399 0.74071068 0.48514947
-75.998428 -33.403507 -30.692842 0.53223944 0.75456661 0.38386238
-72.584328 -34.358585 -33.123173 0.51585495 0.75359374 0.40741897
-64.13678 -36.548454 -38.646564 0.4273499 0.74574691 0.51111013
-0.86246508 -35.073555 -8.260498 -0.68197578 0.72632372 -0.085807376
-68.141068 -35.145988 -36.959858 0.47557592 0.73866558 0.47770363
-60.751167 -36.726387 -40.997341 0.37533325 0.76354629 0.52547318
-79.012573 -32.535362 -27.891855 0.5362919 0.76096559 0.36513343
-69.030128 -36.147934 -34.11298 0.5068785 0.75294542 0.41969916
-62.023754 -38.080978 -38.098389 0.40208942 0.7861715 0.46931708
-58.411217 -38.561092 -39.863201 0.354027 0.7864958 0.50605255
-77.401848 -33.749371 -27.829473 0.53373891 0.76231641 0.36605519
-70.857399 -36.126755 -32.090633 0.4862321 0.77264792 0.40815878
-65.396194 -37.079819 -36.595547 0.45498595 0.76783466 0.45101848
-60.243687 -38.492531 -38.734474 0.35627365 0.7938078 0.49288759
-67.485855 -36.365803 -35.596584 0.48295048 0.75460887 0.4442119
-75.459999 -34.189137 -29.764156 0.52425575 0.76499003 0.3740938
-68.744019 -37.111343 -32.829113 0.5081293 0.75879884 0.40746641
-72.230148 -35.740879 -30.976679 0.50788802 0.77245975 0.38125536
-66.385254 -37.574245 -34.582485 0.45956349 0.77961797 0.42543778
-63.386684 -39.044083 -35.018559 0.41341195 0.80261844 0.42999321
-73.482605 -35.20295 -30.525694 0.5103429 0.7714774 0.37996402
-67.489502 -37.350849 -33.80267 0.47507808 0.77697098 0.41305792
-64.829506 -38.066296 -35.364971 0.44033039 0.78898245 0.42850423
-78.966614 -34.258598 -23.861002 0.5188598 0.80433643 0.28952959
-78.32016 -34.135941 -25.829258 0.55659759 0.76500201 0.32399255
-74.767265 -35.596485 -27.777617 0.52559286 0.77647018 0.34762913
-66.845871 -38.553108 -32.329773 0.46628031 0.79398966 0.3900809
-61.22924 -39.494747 -36.067104 0.38819644 0.81155914 0.43666378
-59.760376 -39.625256 -37.123032 0.36689466 0.80147159 0.47226202
-77.13665 -35.008118 -25.388603 0.53369659 0.77949142 0.32796484
-70.881538 -37.03883 -30.130878 0.49973857 0.78705031 0.36168098
-69.182037 -37.857574 -30.718307 0.49154279 0.7934289 0.35896564
-72.970467 -36.910648 -27.433901 0.49720135 0.80020344 0.3353585
-62.818287 -39.932114 -33.921024 0.40204728 0.82345033 0.40035933
-70.685806 -37.969631 -28.155659 0.5041517 0.80064636 0.32372269
-69.364723 -38.922337 -27.961645 0.48304817 0.81610763 0.3172268
-65.179672 -39.270363 -32.724369 0.44446138 0.80825031 0.3862454
-75.506927 -36.058853 -25.603159 0.53491974 0.78502405 0.31240693
-67.798538 -38.988983 -29.941095 0.46905923 0.81616777 0.33742198
-64.836678 -40.358929 -30.721874 0.43392551 0.83648723 0.3346608
-78.707291 -35.126503 -22.253242 0.55133885 0.7859565 0.27981773
-73.985138 -36.792313 -26.110966 0.48611891 0.81333774 0.31964049
-77.948219 -35.968449 -21.284008 0.54306132 0.79830348 0.26037681
-66.465996 -39.948769 -29.611814 0.46132776 0.82496005 0.3265233
-63.629658 -40.942822 -30.828588 0.41722694 0.83878314 0.34980634
-80.752884 -34.760895 -18.88814 0.43044874 0.87000579 0.24042442
-75.221573 -36.86327 -24.112221 0.5076859 0.8138659 0.28262579
-73.391174 -37.930748 -23.886051 0.4791989 0.83497399 0.27053049
-79.566719 -35.62365 -18.741116 0.5371238 0.81438994 0.2196977
-82.083427 -34.72937 -18.16617 -0.058886889 0.96981704 0.23661639
-76.169174 -37.258152 -20.939968 0.50583351 0.83071345 0.23248136
-71.987694 -38.011665 -26.089682 0.48865566 0.81665683 0.30706224
-75.552391 -38.157578 -18.806805 0.48126209 0.85157955 0.20784396
-74.454346 -37.975872 -21.759058 0.47422919 0.84716606 0.23961711
-71.835464 -38.821255 -23.989992 0.48658708 0.8343237 0.25910798
-70.450111 -39.109081 -25.586901 0.48132795 0.83140391 0.27765247
-73.79982 -38.75082 -20.35186 0.482739 0.84406024 0.23350684
-67.671104 -40.100815 -27.248859 0.46853799 0.83459896 0.28968373
-81.439377 -35.335945 -15.296033 0.17820162 0.95757693 0.22647406
-64.653 -41.417995 -28.050594 0.44107533 0.84125388 0.31264111
-79.134163 -36.419102 -16.858992 0.54161656 0.82031 0.18369295
-72.110519 -39.402397 -21.467339 0.48198593 0.84496164 0.23179631
-69.1735 -40.509937 -23.455414 0.46827945 0.8466965 0.25262502
-66.799622 -40.979744 -26.097174 0.45813176 0.84418827 0.27831879
-80.319756 -36.151131 -14.205572 0.52429408 0.83558172 0.16406977
-78.223633 -36.605698 -18.356026 0.52482706 0.82755607 0.19926725
-65.246651 -41.94305 -26.053608 0.42253628 0.86721301 0.26344791
-79.416008 -36.861668 -13.656919 0.52414954 0.83772707 0.15323406
-76.514458 -37.852993 -17.630171 0.52663064 0.82744467 0.19492465
-63.572117 -42.274445 -27.131517 0.4045333 0.87312567 0.27203721
-74.013344 -39.207222 -18.035742 0.48477438 0.85655349 0.1769461
-81.114449 -36.063332 -11.712566 0.23407386 0.96057796 0.14999831
-71.271858 -39.860836 -21.562065 0.47598943 0.84877068 0.23026584
-69.1763 -41.286354 -20.502226 0.45831999 0.86326706 0.21145383
-78.795273 -37.473499 -12.057596 0.51253432 0.85063553 0.11716557
-77.463371 -37.8792 -14.727998 0.51999795 0.84070373 0.151061
-75.146225 -38.927967 -16.168064 0.45200896 0.87731463 0.16126636
-73.045174 -39.797047 -17.917551 0.47446772 0.85950398 0.19008772
-72.201851 -40.316338 -17.475185 0.46622065 0.8683157 0.16931096
-67.267738 -41.848763 -22.321573 0.44931939 0.86382955 0.2278387
-65.838196 -42.104473 -23.998676 0.4203586 0.88041139 0.21948691
-68.438965 -41.884632 -19.435261 0.44782332 0.87499124 0.18396926
-65.036102 -42.860691 -22.320116 0.38801894 0.89549333 0.21802056
-76.149292 -38.60899 -15.478916 0.49671593 0.85489482 0.14976019
-70.013466 -40.852066 -20.439335 0.4690277 0.86057252 0.19856502
-66.698914 -42.721443 -19.865343 0.43300739 0.8791582 0.19896108
-76.572731 -38.50375 -13.354383 0.50201422 0.85748285 0.11271609
-74.128593 -39.786301 -14.351456 0.46311659 0.87736893 0.12548578
-77.738762 -38.290344 -11.025941 0.49202344 0.86456347 0.10219051
-75.654388 -39.227451 -12.84516 0.47783419 0.87176734 0.10814826
-71.197517 -41.112839 -16.102627 0.46945497 0.87004441 0.15044864
-69.498329 -41.755985 -17.600744 0.45161411 0.87719512 0.16301325
-78.823402 -37.800419 -8.4683247 0.51866692 0.85314733 0.055895675
-76.96019 -38.788448 -9.7682142 0.49188578 0.86728978 0.076529428
-73.925415 -40.197861 -11.965311 0.46571901 0.8804124 0.089330196
-72.269012 -40.975288 -12.972374 0.4733808 0.87507582 0.10076138
-73.041908 -40.350159 -14.297122 0.47466034 0.87073523 0.12852177
-70.532646 -41.598446 -14.946988 0.46129853 0.87753493 0.13090494
-68.052841 -42.557468 -16.921103 0.42293903 0.89572561 0.13710611
-78.043152 -38.27383 -7.6351285 0.52847064 0.84860593 0.024222514
-75.816963 -39.432247 -9.4752893 0.4567847 0.88665366 0.072063312
-69.703392 -41.997971 -15.262093 0.4196429 0.90119946 0.10834832
-67.786163 -42.873917 -14.818703 0.36020994 0.9281224 0.094008118
-70.846085 -41.804085 -12.731678 0.4386003 0.89552915 0.075215444
-76.81665 -39.0863 -6.8427925 0.50491154 0.86239994 0.0364783
-77.55748 -38.510166 -4.9594321 0.56531549 0.82433623 -0.02980075
-75.745262 -39.574989 -7.2807565 0.45060986 0.89167136 0.043275673
-74.346832 -40.27179 -8.133523 0.45839736 0.88655663 0.062362254
-72.407829 -41.120571 -10.481424 0.44426975 0.89451748 0.049626414
-69.990677 -42.257294 -11.210615 0.43087488 0.89970195 0.069880344
-68.724998 -42.621044 -13.717935 0.40990904 0.90710062 0.095619358
-73.075577 -40.942577 -7.5191536 0.4321622 0.90004516 0.05616653
-71.272346 -41.596558 -10.339805 0.43922928 0.89730728 0.043786906
-71.282425 -41.815399 -7.9941759 0.47388366 0.87658912 0.083819799
-34.685219 -47.833557 3.8035433 -0.087633826 0.95944327 -0.26793465
-14.000296 32.681862 32.028042 -0.62984186 -0.35874397 -0.68891358
-10.371408 32.330742 28.622931 -0.66126597 -0.38985106 -0.64089274
-18.998775 31.010847 37.245319 -0.62061739 -0.27903473 -0.73278481
-14.295509 28.644093 34.170528 -0.62187552 -0.30391416 -0.72173882
-7.6896987 27.895205 28.535351 -0.65710956 -0.34938496 -0.66793507
-15.735634 26.399607 36.302776 -0.60908461 -0.27502802 -0.74389225
-18.595055 25.130501 38.832314 -0.59092999 -0.20587856 -0.7800101
-23.056057 23.665653 42.442574 -0.60813069 -0.14265108 -0.78091466
-7.3426604 25.840984 29.142086 -0.65243471 -0.32388023 -0.68515003
-9.084259 24.11577 31.617149 -0.64830059 -0.28577608 -0.7057184
-15.535502 23.376841 37.077656 -0.58225018 -0.20234074 -0.78742802
-70.328926 -1.6235585 -59.236706 -0.83164716 0.47849485 0.2817902
-11.113949 22.46286 33.92049 -0.60270739 -0.24416783 -0.75968802
-20.358484 23.179539 40.646851 -0.57507151 -0.18571959 -0.79674399
-22.55216 21.310225 42.549629 -0.55865645 -0.12462016 -0.81998342
-14.049531 24.192253 35.691334 -0.60556018 -0.23573528 -0.76008272
-9.0445356 20.952881 32.689747 -0.63654482 -0.22816794 -0.73671579
-10.64106 19.99202 34.22599 -0.60630596 -0.19052564 -0.77207065
-16.562971 17.685448 39.139248 -0.55497938 -0.13753828 -0.8204152
-22.29866 16.991768 42.892448 -0.53388751 -0.077123679 -0.84203094
-27.416431 18.344822 46.281387 -0.65694803 0.038631227 -0.75294542
-25.545135 17.425089 44.919476 -0.56060791 -0.028087771 -0.82760489
-19.515331 17.626074 40.98262 -0.53813392 -0.10831229 -0.83587098
-16.600822 15.626528 39.384895 -0.54636192 -0.10787523 -0.83057302
-11.348635 16.740381 35.53907 -0.59806788 -0.16345651 -0.78459978
-13.760483 17.09687 37.213028 -0.57501364 -0.15098618 -0.8040911
-26.380672 14.618342 45.452824 -0.53886914 0.0051924107 -0.84237349
-2.3691909 14.650693 28.448643 -0.67726433 -0.15962373 -0.71821535
-23.013609 13.657196 43.517231 -0.50999802 -0.033232812 -0.85953331
-7.3478575 14.903002 32.821495 -0.62743932 -0.14672694 -0.76471639
-14.648485 13.154075 38.420315 -0.56114089 -0.075435959 -0.82427555
-19.627754 14.817398 41.41317 -0.52143592 -0.07925906 -0.84960139
-25.06436 13.080468 44.750519 -0.4974812 0.003289694 -0.86746854
-20.988947 12.796084 42.351444 -0.5058654 -0.022303717 -0.86232406
-20.284418 11.114469 41.981972 -0.49410439 -0.021523725 -0.86913615
-6.8136673 11.736072 32.814972 -0.63031358 -0.099035084 -0.76999784
-17.726482 13.447506 40.442501 -0.52401948 -0.05782479 -0.84974104
-14.453958 10.721498 38.426403 -0.55558378 -0.042840295 -0.83035618
-28.03875 13.467199 46.439678 -0.55637115 0.074968956 -0.82754499
-0.91160721 12.565889 27.411016 -0.69973898 -0.12915957 -0.70262593
-15.621304 12.537385 39.087872 -0.5415709 -0.052169938 -0.83903474
-11.314257 9.8415051 36.352165 -0.56524026 -0.041455582 -0.82388401
-23.908354 10.808482 44.027988 -0.48859277 0.017808681 -0.87233019
-34.244965 10.490025 51.160789 -0.72229046 0.30914143 -0.61865008
-27.034971 10.92488 45.724701 -0.48485911 0.044986852 -0.87343448
-27.952349 9.6882935 46.153778 -0.46945995 0.079611957 -0.87935734
-7.2009974 10.453317 33.276073 -0.61843228 -0.071209289 -0.78260511
-18.84408 8.7251368 41.258244 -0.50596565 0.019837253 -0.86232543
-5.3914537 7.7417316 32.000008 -0.63732672 -0.040456589 -0.76953089
-14.265979 8.7912731 38.35807 -0.5433749 0.0061831395 -0.83946741
-25.015358 8.1427965 44.519741 -0.46449888 0.068032473 -0.88295656
-12.543009 7.3040056 37.196644 -0.54816735 0.011015833 -0.83629614
-13.907885 6.0947752 38.067776 -0.53594834 0.01815968 -0.84405541
-21.054361 8.087183 42.430481 -0.47085512 0.042800155 -0.8811717
-29.573183 8.2016735 46.833225 -0.46153533 0.12628232 -0.87808764
-31.223898 9.134409 47.955727 -0.56497473 0.19902085 -0.80074614
-19.409401 6.693985 41.347984 -0.48648241 0.05776684 -0.87177855
-26.257801 6.2384739 44.914017 -0.43396297 0.11595894 -0.89343697
-16.952368 6.8083472 39.951561 -0.51918072 0.033508185 -0.85400742
-23.124073 6.3479767 43.360218 -0.46078244 0.067141794 -0.88496977
-31.606644 5.739182 47.444187 -0.47616276 0.18442263 -0.85980076
-26.632689 3.6410646 44.723431 -0.41690806 0.14465871 -0.8973636
-28.867615 6.2276297 46.149807 -0.43121007 0.13825397 -0.8915962
-3.0543139 7.1874623 29.99258 -0.65904677 -0.025134532 -0.75168192
-4.5271587 4.841197 31.383171 -0.64606035 0.011696269 -0.76319677
-18.185728 5.2278171 40.647732 -0.49507475 0.045356203 -0.86766571
-21.140711 5.145226 42.277111 -0.466405 0.06641455 -0.88207459
-34.235634 4.4176025 48.710957 -0.52472854 0.24830301 -0.8142516
-18.424786 2.8800452 40.577343 -0.48856413 0.10916854 -0.86567163
-24.306463 4.4819818 43.790287 -0.42936462 0.11495152 -0.89578575
-11.430541 2.1738913 36.254066 -0.54324478 0.1020947 -0.83334368
-12.298806 3.9231682 36.958649 -0.54342151 0.044556517 -0.83827668
-29.637793 4.2203951 46.249527 -0.41916433 0.1583664 -0.89399183
-21.588732 2.9998658 42.266884 -0.44202963 0.13812526 -0.88630193
-25.027266 2.1538453 43.723988 -0.41091567 0.16475114 -0.89666343
-28.902225 2.1374583 45.538143 -0.41084921 0.17393057 -0.89495867
-14.169052 2.5736809 38.00526 -0.51639938 0.10096732 -0.85037476
-19.778931 0.78282392 40.931721 -0.4592824 0.13550387 -0.87789428
-22.830154 0.99647474 42.498718 -0.42515191 0.15754443 -0.89130551
-32.802288 3.2204099 47.538143 -0.44725877 0.20596777 -0.87036598
-33.683941 1.4363446 47.493412 -0.43784073 0.26399043 -0.85942101
-2.807811 2.0695457 29.717846 -0.665025 0.062966719 -0.7441619
-14.544261 0.69219732 37.96767 -0.52353984 0.10961466 -0.84492058
-7.7606316 2.9168937 33.762981 -0.59185261 0.056838062 -0.80403972
-9.6421032 1.6625807 34.954479 -0.56272143 0.086347699 -0.82212442
-11.072649 0.094682522 35.680199 -0.53901649 0.10136753 -0.83617336
-16.79528 1.388325 39.391705 -0.49430209 0.11726572 -0.8613444
-8.2318926 -0.0044069965 33.822723 -0.57338774 0.10140199 -0.81298476
-5.7536831 -0.31011456 31.933674 -0.60458672 0.10080197 -0.79013532
-16.521595 -0.34713143 39.068504 -0.49223006 0.11383023 -0.86299032
-26.811451 0.38311386 44.209377 -0.40641159 0.18415977 -0.89493841
-30.589701 1.0427266 46.038757 -0.3928363 0.2129146 -0.89462113
-13.60114 -1.2575533 37.160233 -0.52557427 0.10261184 -0.84453684
-15.283429 -2.5393376 37.984512 -0.49737132 0.19631937 -0.84503281
-18.307425 -1.7592161 39.815189 -0.44966838 0.18087335 -0.87469029
-27.901224 -1.9053097 44.147816 -0.3854323 0.21504851 -0.89732713
-20.978374 -0.61456788 41.3484 -0.4291642 0.17509872 -0.88609165
-23.366821 -1.7113194 42.245289 -0.40832499 0.19572233 -0.89160722
-30.694962 -2.3091376 45.17841 -0.34860286 0.25875926 -0.90084392
-32.601784 -1.0506427 46.311737 -0.35935637 0.27221316 -0.89261585
-11.119765 -2.1765254 35.507942 -0.52985156 0.15231 -0.83430147
-17.009069 -4.2467279 38.479168 -0.4705067 0.22512931 -0.85319418
-25.412449 -1.8804395 43.102055 -0.39148602 0.20661372 -0.89668804
-28.829643 -2.9610937 44.349323 -0.34358746 0.25974268 -0.90248626
-8.8791037 -1.9030058 33.987846 -0.56570202 0.15604314 -0.80971098
-19.250828 -4.1478605 39.710606 -0.43344319 0.23212479 -0.87077266
-21.234493 -3.6134472 40.751266 -0.41385287 0.22137539 -0.88301688
-11.957233 -5.2183952 35.359398 -0.51224238 0.19101569 -0.83732957
-27.511856 -4.673636 43.286041 -0.36472347 0.26914284 -0.8913691
-8.7763414 -5.2773671 33.283844 -0.56173223 0.19600134 -0.80376643
-24.212818 -4.2565179 41.970291 -0.3993769 0.235117 -0.88612533
-13.944048 -4.1824503 36.658104 -0.49220663 0.21131277 -0.84444034
-29.585712 -5.087503 43.87326 -0.32248306 0.28804949 -0.90168297
-31.677402 -4.5764112 44.813992 -0.33800608 0.29046547 -0.89519924
-16.95318 -7.239347 37.706242 -0.44606581 0.23761293 -0.86288196
-6.8168435 -6.8208156 31.3762 -0.57651967 0.23303962 -0.78314596
-10.728539 -6.8962564 34.134457 -0.52726179 0.22885007 -0.81830478
-31.321665 -6.6182008 44.057533 -0.31246558 0.31734535 -0.89535308
-20.526314 -6.2132883 39.732346 -0.42223907 0.23974094 -0.87420732
-14.092238 -8.1226988 35.846607 -0.49047726 0.24384257 -0.83664382
-15.374072 -7.0072989 36.838726 -0.4857235 0.20562387 -0.84958321
-22.237318 -7.8105602 40.109772 -0.38295355 0.28757396 -0.87786549
-24.900002 -6.4147482 41.675148 -0.36352593 0.28635481 -0.8864817
-39.255508 -6.4528451 46.907295 -0.36024415 0.41474426 -0.83559036
-25.969498 -8.1981516 41.417423 -0.34955201 0.31981879 -0.88064146
-28.794537 -8.1155825 42.660049 -0.33074594 0.32648343 -0.88544661
-15.888529 -9.3342867 36.501602 -0.44607157 0.27670765 -0.85114807
-19.091791 -8.8140373 38.276955 -0.4224858 0.28491199 -0.86042488
-36.269783 -7.7148304 45.330143 -0.29001772 0.38255727 -0.8772341
-10.067 -9.2316589 32.967907 -0.54829013 0.25777414 -0.79556924
-11.821742 -8.25284 34.4603 -0.50292832 0.25901377 -0.82460594
-31.260252 -10.282463 42.576191 -0.30965269 0.3577221 -0.88099378
-8.385767 -9.6719646 31.67135 -0.56774211 0.27337813 -0.77648783
-20.642475 -11.430257 38.114822 -0.38745967 0.33660677 -0.85823709
-25.432615 -10.88242 40.273273 -0.33221033 0.32569236 -0.88518971
-37.984684 -7.931129 45.869011 -0.2908369 0.3969982 -0.87052065
-33.096184 -7.4040918 44.394234 -0.31545186 0.33664191 -0.88722163
-14.653043 -10.917721 35.206837 -0.48050311 0.28612483 -0.829005
-42.320499 -8.7179317 47.058968 -0.42578927 0.49136701 -0.75977755
-19.458208 -10.905527 37.724812 -0.43767747 0.31168586 -0.84338027
-33.497765 -11.028123 43.12941 -0.28686336 0.37935486 -0.87965864
-13.1862 -11.927984 34.119411 -0.49638376 0.3178634 -0.80781561
-44.198112 -10.864636 46.610493 -0.38672468 0.52715319 -0.75667262
-27.998636 -10.983875 41.162434 -0.31631666 0.35793087 -0.87853819
-18.429466 -11.911982 36.788338 -0.40227023 0.35544172 -0.84370601
-31.32156 -12.357359 41.747089 -0.29693618 0.39905703 -0.86751503
-38.261856 -11.827705 44.05291 -0.25762588 0.40972924 -0.87507188
-23.571341 -11.08132 39.465023 -0.35236955 0.33502904 -0.87383705
-34.679672 -10.499946 43.638065 -0.26070347 0.37703198 -0.88875228
-40.71962 -10.413723 45.517517 -0.27674764 0.45353475 -0.84718174
-36.627495 -12.370335 43.463634 -0.23812647 0.4162809 -0.87749988
-22.577253 -13.937908 37.85902 -0.35356435 0.39666143 -0.84714341
-26.165091 -12.961536 39.738213 -0.32427502 0.38092622 -0.86587578
-43.338306 -13.066246 44.958462 -0.27788091 0.51278538 -0.81230134
-12.282302 -13.827831 32.552666 -0.5017938 0.34570703 -0.79289949
-48.086384 -11.991728 48.161045 -0.46644598 0.60153496 -0.64852452
-10.62664 -14.240143 31.447662 -0.54547811 0.34032753 -0.7659182
-14.010615 -14.813552 33.222385 -0.46564004 0.38872907 -0.79502767
-11.921804 -15.429875 31.754076 -0.4382512 0.38239053 -0.81345767
-34.979458 -13.908151 42.175217 -0.25425667 0.43890727 -0.86180854
-39.134911 -14.42388 42.985588 -0.2107375 0.46485931 -0.85993934
-46.189266 -14.128621 45.222881 -0.33270597 0.57425499 -0.74802262
-28.027082 -14.704535 39.637634 -0.2827265 0.42016307 -0.86228114
-29.598793 -13.535972 40.605659 -0.28193715 0.39639434 -0.8737179
-13.010984 -15.9075 31.854311 -0.46135762 0.38400924 -0.79980373
-32.670444 -14.792172 41.000988 -0.26627618 0.43777135 -0.85875094
-48.212776 -13.775109 46.473785 -0.39542833 0.64567381 -0.65325475
-30.690544 -16.247379 39.620937 -0.27178445 0.45130622 -0.84997404
-43.171925 -16.581207 42.732475 -0.20968866 0.5155046 -0.83083433
-19.117701 -16.508059 35.140598 -0.40138558 0.39995763 -0.82396811
-25.846771 -17.478868 37.369335 -0.31669059 0.43159711 -0.84464842
-27.317389 -15.859138 38.72562 -0.30013099 0.43791518 -0.84743828
-36.774174 -16.481773 41.293476 -0.20640498 0.48681206 -0.84877032
-21.327967 -15.955764 36.363029 -0.36662903 0.39810953 -0.84088761
-40.442368 -16.508009 42.079563 -0.19595528 0.51292425 -0.83576918
-31.673992 -18.786797 38.520336 -0.24691087 0.48293716 -0.84012312
-17.188076 -16.721247 33.974766 -0.39892215 0.4019613 -0.82418948
-33.233082 -17.519615 39.763847 -0.24848334 0.46914172 -0.84744447
-19.790792 -19.233397 33.991615 -0.36549002 0.45518297 -0.81192702
-16.401527 -18.70731 32.698807 -0.42092335 0.43571302 -0.79559892
-28.383707 -18.626335 37.671341 -0.26890218 0.46759963 -0.84204644
-46.098873 -16.51779 43.477222 -0.23167282 0.56780148 -0.78989196
-15.150871 -21.261709 30.406618 -0.43863183 0.4841857 -0.75707746
-41.618256 -19.87669 40.221363 -0.17209432 0.54025924 -0.8237133
-17.510702 -20.684992 32.075619 -0.38652045 0.48822764 -0.78245491
-23.384144 -18.574249 35.901459 -0.32943881 0.45449355 -0.82759029
-26.044521 -20.074829 35.994465 -0.29333967 0.48786548 -0.82215512
-28.785963 -20.91316 36.408775 -0.2637738 0.50895143 -0.81938511
-30.764465 -21.043018 36.937733 -0.2293044 0.5180226 -0.82405829
-38.671089 -19.569023 39.810196 -0.16840112 0.52674747 -0.83317357
-48.600544 -18.03689 42.986031 -0.22655937 0.61840719 -0.75249147
-35.572895 -18.790552 39.631763 -0.20333229 0.51369393 -0.83353138
-47.496052 -19.990103 41.279396 -0.143933 0.60304505 -0.78461444
-29.587589 -23.817202 34.810207 -0.24424091 0.53874183 -0.80629009
-38.713768 -21.620966 38.517937 -0.16313149 0.54932737 -0.81952888
-19.879509 -22.275124 32.141777 -0.34773916 0.50915158 -0.78730053
-34.996666 -21.428478 37.850037 -0.20720798 0.5299474 -0.82232636
-22.797159 -21.812933 33.747082 -0.3241975 0.49981347 -0.80317026
-36.765114 -23.521976 36.798264 -0.16703327 0.57217699 -0.80294043
-41.990608 -22.713734 38.37138 -0.13167538 0.58030522 -0.8036837
-23.57836 -24.439173 32.322842 -0.30924547 0.5403226 -0.78257185
-33.467308 -23.357338 36.120014 -0.19913177 0.55219918 -0.80958182
-45.921871 -19.934725 41.025585 -0.16324879 0.57011104 -0.80518526
-52.397785 -20.190308 42.289162 -0.26962629 0.70935458 -0.65124321
-26.58243 -22.849087 34.485508 -0.27580661 0.52698189 -0.80387861
-54.965927 -20.783197 42.881973 -0.32886973 0.74810618 -0.57635212
-26.695349 -25.753246 32.530136 -0.2655459 0.56573528 -0.78065938
-44.367847 -21.820829 39.395714 -0.13012338 0.59467936 -0.79336274
-29.515823 -26.112535 33.155277 -0.22751927 0.58431685 -0.77897936
-47.35519 -22.439096 39.374096 -0.12123283 0.62203956 -0.7735433
-22.174326 -25.671299 30.876143 -0.32295796 0.55074394 -0.76966172
-35.622349 -25.813938 34.908791 -0.16014774 0.59642112 -0.7865333
-32.260872 -24.835768 34.866253 -0.20415314 0.56076115 -0.80241406
-46.932621 -24.035479 37.977516 -0.11095679 0.63781261 -0.7621572
-50.21471 -21.214155 40.829727 -0.16002725 0.64553255 -0.74677914
-45.084309 -23.852343 37.849632 -0.097436324 0.62125343 -0.77752835
-53.133053 -22.871803 39.834488 -0.13893418 0.67484236 -0.7247656
-38.498241 -25.36582 35.762238 -0.13383806 0.60419273 -0.78551793
-40.817131 -24.144409 37.092102 -0.12975299 0.59996915 -0.78943098
-53.041267 -24.636339 38.144569 -0.10237371 0.71294677 -0.6937049
-44.393272 -25.560526 36.445599 -0.091688491 0.62857223 -0.77232784
-48.087463 -25.835598 36.614513 -0.076764181 0.66136771 -0.74612331
-50.417545 -24.275927 38.241245 -0.08385247 0.66308451 -0.74383312
-56.199043 -23.326418 40.2309 -0.24423705 0.76187277 -0.59991515
-25.360516 -27.241436 30.919863 -0.272847 0.59616822 -0.7550748
-28.153561 -27.890453 31.347439 -0.2260069 0.61446911 -0.75587606
-33.977119 -26.490093 34.009838 -0.18021259 0.61760491 -0.76556361
-41.085159 -26.307106 35.397533 -0.10498066 0.63565493 -0.76480186
-38.506771 -26.797333 34.616707 -0.1158945 0.63187122 -0.76635981
-46.520237 -26.743389 35.621193 -0.063035332 0.67237824 -0.73751879
-59.006393 -24.898916 39.20533 -0.24985597 0.81178874 -0.52779841
-36.6465 -28.842062 32.607193 -0.13724381 0.64397007 -0.75263989
-32.113335 -27.849054 32.45396 -0.18765159 0.62299144 -0.75938696
-53.650616 -26.609524 36.291889 -0.048080485 0.70389611 -0.70867389
-56.769596 -25.147085 38.165989 -0.13655026 0.76499063 -0.62939924
-40.356228 -28.846048 33.192368 -0.097232945 0.65118384 -0.75266546
-43.838718 -27.179586 34.992527 -0.070602998 0.66215008 -0.74603784
-51.445354 -27.10791 35.684208 -0.044017408 0.69843632 -0.71431726
-46.366684 -29.30604 33.261494 -0.031894807 0.68793762 -0.72506875
-48.065178 -28.898176 33.76231 -0.031736609 0.69185793 -0.72133583
-56.060966 -26.166273 36.91021 -0.06651403 0.73533672 -0.67443001
-58.832436 -26.847572 36.462402 -0.13613531 0.79170507 -0.59554195
-28.051983 -29.985077 29.568771 -0.23246442 0.63005054 -0.74094301
-33.852852 -29.568914 31.443747 -0.15405653 0.65927631 -0.73594928
-49.272823 -27.665438 34.956169 -0.039696485 0.70004576 -0.71299374
-30.967043 -29.846869 30.48033 -0.19163851 0.6427213 -0.74174386
-43.047157 -28.386539 33.854496 -0.077115215 0.64792663 -0.75778913
-60.862175 -26.471989 37.626545 -0.25474307 0.83246934 -0.49203748
-29.241491 -32.097431 28.043398 -0.19166584 0.68002021 -0.70769817
-32.664677 -31.850258 29.074936 -0.1596051 0.67546695 -0.71991009
-52.832554 -28.420332 34.388634 -0.021582562 0.72714025 -0.6861496
-42.790985 -31.336485 31.109636 -0.051823638 0.71022314 -0.70206648
-55.887241 -27.918242 34.976795 -0.016466899 0.74183381 -0.67038161
-39.936012 -30.392256 31.721109 -0.093341902 0.67727935 -0.72978079
-56.722263 -29.845564 32.792515 0.022524627 0.76887786 -0.63899887
-59.729652 -28.781017 34.051617 -0.048753146 0.80879587 -0.58606505
