# .PCD v0.7 - Point Cloud Data file format
VERSION 0.7
FIELDS x y z normal_x normal_y normal_z
SIZE 4 4 4 4 4 4
TYPE F F F F F F
COUNT 1 1 1 1 1 1
WIDTH 722
HEIGHT 1
VIEWPOINT 0 0 0 1 0 0 0
POINTS 722
DATA ascii
-11.118015 -49.574486 11.47156 0.16822205 0.92999673 -0.326814
15.756041 -0.6727854 5.8002853 -0.25576118 -0.27830034 -0.92581594
8.2659206 -10.451463 28.339252 -0.13308366 -0.29744297 -0.94541866
-9.5721703 -0.59766287 18.361052 -0.58546567 -0.27607778 -0.76224083
-22.909948 -3.1357396 33.089584 -0.76943237 -0.29158178 -0.56829035
-22.145449 -4.355453 32.619156 -0.76766098 -0.32215607 -0.55399644
20.804682 -2.3535693 5.2836447 -0.17652267 -0.27410182 -0.94536132
12.3702 -9.3698359 26.542791 -0.50284839 -0.16339423 -0.84879082
9.3185244 -8.0682268 27.403767 -0.058801968 -0.2275539 -0.97198844
-16.48925 -0.049777269 24.183008 -0.69853902 -0.25497794 -0.66860276
13.505362 -2.0248454 6.9605169 -0.32209185 -0.27453926 -0.90602702
-4.0558834 -0.29492012 14.423428 -0.48892814 -0.26258141 -0.83186555
-14.267424 -0.92242289 22.322512 -0.62662733 -0.26426715 -0.7331447
-32.391724 -7.5472503 47.67577 -0.53718495 -0.24584939 -0.80683982
-30.624285 -7.0898352 46.482647 -0.55054665 -0.22739716 -0.80323648
-12.594281 -1.6835245 21.266256 -0.61795032 -0.28197691 -0.73391169
-28.299314 -7.8639441 45.090996 -0.67132205 -0.28795028 -0.68294311
-9.8803329 -3.3806334 19.68129 -0.59162384 -0.30604884 -0.74586552
-27.570131 -9.3520069 44.907284 -0.74727517 -0.31217578 -0.5866226
-11.816547 -3.9314725 21.542177 -0.61400753 -0.30651274 -0.72735453
10.491808 -9.9633474 27.527552 -0.34164235 -0.17597316 -0.92320848
-3.7474749 -3.7551842 15.400697 -0.48360243 -0.31672606 -0.81597382
-19.636936 -4.14677 29.41086 -0.72185683 -0.33325806 -0.60651612
-31.393564 -9.7946901 47.729527 -0.55734557 -0.18546039 -0.80930239
-33.355919 -8.5871553 48.955494 -0.53963995 -0.2528007 -0.8030445
-7.2311363 -3.10268 17.509102 -0.5593009 -0.30813286 -0.7695691
-29.966038 -9.2943506 46.771801 -0.53861481 -0.23099875 -0.81026757
11.006659 -13.5966 28.223442 -0.3290185 -0.17407203 -0.92814094
8.9966106 -12.674415 28.571131 -0.31257889 -0.19994976 -0.92860895
-7.5222998 -4.9965315 18.617605 -0.55830973 -0.33408791 -0.75939161
-28.275024 -10.804618 46.02916 -0.56024075 -0.25333482 -0.78863919
-5.046526 -4.7749934 16.725769 -0.5341109 -0.34020573 -0.77394164
24.538244 -43.973232 29.208939 -0.3368001 0.85490465 -0.39459309
-19.011929 -7.4197531 30.560884 -0.71064776 -0.36615855 -0.60075587
-26.787436 -10.779571 44.688217 -0.72229606 -0.35908529 -0.59105515
44.237614 -14.091472 9.5072403 0.10871132 -0.44072893 -0.89103305
-10.267519 -5.3136377 20.8099 -0.61122006 -0.32825169 -0.72018111
-30.732243 -11.899231 47.80006 -0.46683478 -0.26105398 -0.84493554
45.594551 -16.825926 11.066672 0.099302731 -0.4671804 -0.87856781
16.643513 -6.0136685 7.4235749 -0.24823242 -0.34532419 -0.90505904
17.185871 -8.5524931 8.2632313 -0.23791195 -0.36583456 -0.89975709
-12.982949 -6.6931601 23.809511 -0.61226428 -0.36158735 -0.70312661
-26.268517 -12.274749 45.173225 -0.62409472 -0.35388297 -0.6966151
15.682478 -9.3302183 9.0272131 -0.28465244 -0.37901443 -0.8805232
10.655545 -16.498867 28.574451 -0.31303725 -0.14506504 -0.93859679
-3.2904489 -7.3493285 16.701399 -0.47944975 -0.36247742 -0.79921091
-6.1043329 -6.2739992 18.088688 -0.53956312 -0.34497392 -0.76802641
-28.463337 -13.031314 46.961792 -0.53337264 -0.27133906 -0.80117947
20.884249 -9.7951632 8.060421 -0.1719992 -0.38868088 -0.90517586
-1.2054688 -7.2974019 15.631146 -0.45464772 -0.36256456 -0.81353694
-11.877758 -8.1669312 23.53759 -0.61345321 -0.36349919 -0.7011016
22.053133 -44.193478 30.938135 -0.44273102 0.30940646 -0.84157997
-5.9135346 -8.5380621 19.025126 -0.54013568 -0.3700102 -0.75587422
-8.7473392 -7.0752444 20.370232 -0.57077128 -0.36608666 -0.73498338
-13.631954 -8.8389654 25.508352 -0.6332016 -0.37960511 -0.67450398
-27.320944 -14.394076 46.458614 -0.53770179 -0.25222346 -0.80452478
-24.27141 -15.657049 44.938599 -0.64358252 -0.38180089 -0.66334736
-28.857016 -15.486586 48.004456 -0.55638987 -0.2875866 -0.77956676
-1.8515435 -11.49095 17.828302 -0.45375523 -0.38824913 -0.80210268
-26.691261 -16.578791 46.849365 -0.5271818 -0.2804212 -0.80214912
12.377429 -18.211962 28.381224 -0.39674261 -0.1614079 -0.90362757
-4.2583046 -9.3534679 18.294464 -0.5211851 -0.38731188 -0.76049685
16.486027 -11.312171 9.6740675 -0.25445613 -0.40683031 -0.87734896
-0.799164 -9.7557745 16.462479 -0.45849922 -0.37108904 -0.80750936
14.120639 -12.226857 10.944888 -0.34468341 -0.43193984 -0.83343947
12.13545 -19.916046 28.742579 -0.38221747 -0.16076313 -0.90998077
-6.5302305 -11.312448 20.969587 -0.55108279 -0.39721841 -0.73384285
-27.189999 -18.453512 47.731796 -0.59161395 -0.24385118 -0.7684592
53.739269 -23.328171 10.019114 -0.80794102 0.57109016 0.1452149
22.179178 -15.327139 10.432549 -0.15358028 -0.46122566 -0.8738901
-0.9905526 -13.96626 18.63641 -0.44055915 -0.45624217 -0.77314341
-7.6003122 -12.62702 22.433786 -0.54466987 -0.43889409 -0.7146374
-8.7004652 -11.290773 22.719143 -0.57424659 -0.41478914 -0.70582634
-22.181376 -18.225462 44.424812 -0.65126866 -0.37148795 -0.66169918
54.662235 -21.489441 7.7755032 -0.81804812 0.54378116 0.18734817
16.553936 -13.458794 10.631971 -0.25548443 -0.45799619 -0.85145009
13.728276 -22.340105 28.465454 -0.37865177 -0.17424743 -0.90898877
-0.33157277 -12.571446 17.607183 -0.41685247 -0.43633273 -0.79740059
-3.408541 -12.008335 18.99682 -0.51214594 -0.42090371 -0.74869657
-4.7249899 -12.601081 20.41115 -0.53195435 -0.43360865 -0.72732949
17.894022 -15.487494 11.556262 -0.19381911 -0.47306609 -0.85944325
11.491217 -21.766001 29.268169 -0.39631367 -0.16850513 -0.90251952
-24.918736 -17.697824 46.028419 -0.51444751 -0.27175206 -0.81332308
15.665627 -14.58291 11.655057 -0.3078137 -0.4673515 -0.82875407
-23.63311 -20.483751 46.308002 -0.527583 -0.27189928 -0.80481493
53.073124 -24.284229 8.0900021 -0.81344926 0.56318092 0.14535333
20.854364 -17.581829 12.046457 -0.1879131 -0.48331243 -0.85504258
-2.9773695 -14.146841 20.108725 -0.51074636 -0.45436919 -0.72985399
-21.16572 -20.36578 44.439129 -0.57901299 -0.30996686 -0.75409847
19.121002 -17.748926 12.45779 -0.18973215 -0.49416262 -0.84841323
15.604885 -17.180193 13.174891 -0.36182725 -0.51269794 -0.7786026
16.901823 -16.229412 12.04747 -0.24461941 -0.48540166 -0.83937269
-3.7915676 -15.017473 21.187195 -0.52589214 -0.46579638 -0.71166778
1.5511843 -16.238091 18.727057 -0.33823204 -0.48084295 -0.80894321
-19.833826 -21.011553 43.88393 -0.48087677 -0.34707549 -0.80516833
13.114755 -24.068287 29.021656 -0.37208593 -0.19744177 -0.90695572
-18.68248 -22.961023 44.074749 -0.52028006 -0.31431714 -0.79404873
52.16803 -25.693079 11.044777 -0.81051719 0.57183576 0.12675063
51.725739 -26.676943 11.318589 -0.81081694 0.57452738 0.11177757
-29.676563 -30.21406 50.264385 0.10937496 -0.070173733 0.99152046
51.724461 -25.796305 7.4141302 -0.78455746 0.59473687 0.17537838
51.138432 -27.469105 11.901329 -0.70610124 0.70645648 0.048377063
17.271433 -18.753004 13.62932 -0.2487994 -0.53237724 -0.80911881
11.817942 -25.239885 29.892824 -0.29394764 -0.18739222 -0.93727207
2.2435625 -19.701696 20.567326 -0.39718726 -0.52052128 -0.75584382
20.932943 -22.318346 14.997997 -0.15837824 -0.54911309 -0.82060409
16.48752 -27.82373 28.465567 -0.47090271 -0.18977551 -0.86153114
13.929152 -26.437571 29.273252 -0.36655933 -0.20942158 -0.90651911
11.275032 -27.721506 30.60807 -0.30183402 -0.18829709 -0.93458039
-16.208128 -25.414698 43.106159 -0.55353254 -0.36228162 -0.74990249
-17.587851 -25.747929 44.352173 -0.54818445 -0.32371786 -0.77116835
46.810959 -30.810497 17.084381 -0.41903323 -0.070965298 -0.90519339
-4.7590108 -34.01503 40.033016 -0.44735536 -0.28299955 -0.84840113
50.573357 -28.252983 10.842456 -0.75659883 0.65002429 0.070898429
48.297062 -30.547068 14.241511 -0.76249444 0.64439273 0.057967745
41.514347 -30.071449 18.429337 -0.30329862 -0.30402705 -0.90309328
13.958741 -28.407774 29.799057 -0.38335672 -0.17319569 -0.90721607
49.427677 -29.079477 11.2725 -0.7351777 0.66394967 -0.13669184
47.259007 -31.620441 14.642752 -0.69198996 0.72094131 -0.037328206
45.131313 -31.896641 18.450384 -0.37046683 -0.23351297 -0.89901388
-14.535909 -27.860121 43.346481 -0.46640366 -0.33231363 -0.81977755
49.199532 -29.801001 10.900775 -0.75411195 0.65668821 0.0087041697
48.038097 -31.466305 16.732948 -0.71621865 0.67985469 -0.15757042
46.855907 -32.524899 17.256897 -0.7437253 0.6146853 -0.26274458
16.976217 -29.284349 28.384342 -0.41879767 -0.16389222 -0.89316738
47.88942 -30.722025 9.6406984 -0.6767785 0.72026473 0.15228142
43.636692 -32.603439 18.760612 -0.17988612 -0.23869689 -0.95428753
46.525425 -32.243683 15.782396 -0.59859037 0.80094749 0.013140284
39.630638 -33.30978 20.27828 -0.28133827 -0.29669112 -0.9125914
14.886093 -30.32317 29.576445 -0.40374771 -0.17149822 -0.89865243
-13.335473 -29.131502 43.227345 -0.46645328 -0.27930382 -0.83929175
47.302685 -32.063568 13.476092 -0.70311964 0.71103609 -0.0071185473
36.749588 -33.154644 21.279821 -0.34721211 -0.29281825 -0.89089912
48.299828 -31.090305 12.149228 -0.72969502 0.67854452 0.084394552
45.287956 -33.746048 18.497416 -0.60437191 0.25518838 -0.75472742
42.372822 -34.911201 20.038809 -0.33484802 -0.27470353 -0.90134054
13.398082 -32.340057 30.571047 -0.3164942 -0.19755942 -0.92779404
44.528965 -34.16185 17.548847 -0.61036438 0.77101701 0.18162619
44.048569 -34.937538 19.177645 -0.68722886 0.38116327 -0.61841017
42.371201 -33.29982 19.212942 -0.33365181 -0.334896 -0.88120431
17.069202 -31.464621 28.860909 -0.43022269 -0.21494228 -0.87676013
14.836919 -31.880587 30.181902 -0.37647894 -0.21580507 -0.90093935
12.011725 -30.193283 30.828339 -0.329703 -0.14393316 -0.93304831
-10.563729 -30.057384 41.722923 -0.5043028 -0.32669011 -0.7993449
-19.68943 -30.833406 47.027145 0.34031597 0.58420306 -0.736812
-22.227289 -30.114616 44.768578 0.55995405 0.62940037 -0.53880113
46.164654 -33.19838 13.621017 -0.67379433 0.73826879 -0.03099186
44.729137 -33.450611 15.142899 -0.60440302 0.79371804 -0.06861905
39.668045 -34.659981 20.611465 -0.29339015 -0.25906357 -0.92022192
19.36644 -33.599461 28.289888 -0.57371879 -0.19421716 -0.79569238
-11.065298 -31.767128 42.77911 -0.48510748 -0.30395356 -0.81992871
-16.096029 -31.876991 46.468788 -0.51187712 0.028420608 -0.85858846
43.791771 -34.13316 15.542068 -0.78263712 0.6103453 -0.12230181
43.182297 -30.747944 18.093962 -0.28558451 -0.32608536 -0.90117133
23.696939 -38.393341 28.210495 -0.36302745 -0.27994251 -0.88873124
43.228767 -35.155525 16.23576 -0.65477741 0.75317883 -0.063152716
41.329529 -36.558224 20.679609 -0.44014055 0.075616248 -0.89473939
38.277565 -36.151363 21.589853 -0.36474314 -0.22895665 -0.9025194
-6.856689 -32.809902 40.645092 -0.48010391 -0.36195832 -0.79905343
-18.354 -31.342464 47.032852 -0.099039145 0.063373193 -0.99306345
30.972075 -36.086979 24.358191 -0.3389743 -0.32354176 -0.8834123
16.247707 -33.6255 29.733637 -0.42304328 -0.18431804 -0.88716471
14.047311 -34.25526 30.868467 -0.35346022 -0.21582466 -0.9102118
-9.090353 -32.699932 42.039745 -0.46145979 -0.29652673 -0.83613801
-46.108784 -23.857405 20.556055 -0.76690066 -0.46190071 0.44554594
44.62207 -34.706059 14.237181 -0.67569286 0.73538995 -0.051390219
39.300514 -38.174137 21.738329 -0.63469166 0.08422368 -0.76816201
-11.682341 -33.124149 43.652309 -0.47841808 -0.26063216 -0.83856249
-17.470659 -32.543736 46.494709 0.25177598 0.67516214 -0.69337213
-12.909795 -49.997349 9.3012199 0.18578424 0.93468022 -0.30307922
36.277786 -36.382339 22.432089 -0.3597964 -0.28484046 -0.88848889
34.084396 -37.281563 23.631069 -0.35574269 -0.30738205 -0.88258904
-9.5649052 -34.628403 42.81052 -0.46351489 -0.24185628 -0.85244328
5.8162041 -22.802668 23.711363 -0.87661254 -0.18218011 0.44537714
-18.846601 -32.788052 44.485741 0.47541106 0.70863479 -0.52136451
30.184586 -37.704372 25.455076 -0.36130807 -0.24905358 -0.89857042
20.06345 -35.204391 28.015049 -0.63658893 -0.30680767 -0.70754755
18.046419 -34.793316 29.195415 -0.43659693 -0.23019956 -0.86970758
13.943553 -36.427299 31.503435 -0.3543323 -0.32312644 -0.877518
-19.928059 -31.725677 45.123241 0.47337729 0.72536349 -0.49976167
-22.411783 -31.518906 43.499268 0.51885283 0.69732213 -0.49450341
-23.211416 -30.743792 43.514439 0.59448999 0.68379158 -0.42309663
42.187222 -36.641216 15.234916 -0.60350347 0.79720324 -0.015828548
40.841984 -36.756527 17.360882 -0.74046308 0.63167238 -0.22957431
-7.7161231 -34.233898 41.806522 -0.46182385 -0.27698332 -0.84261441
-13.727182 -35.298592 45.374325 -0.31922048 -0.021039275 -0.94744688
-15.739282 -34.186611 45.626022 -0.065286249 0.35225034 -0.933626
40.605778 -37.761837 17.063276 -0.63517898 0.77202982 -0.022753013
40.06815 -37.256447 18.643093 -0.60558999 0.79223406 -0.075006701
32.41869 -37.861294 24.52553 -0.34463295 -0.2746188 -0.89767069
25.237158 -38.807632 27.711847 -0.38682032 -0.26140371 -0.8843292
16.416862 -35.9076 30.211048 -0.38664445 -0.30365637 -0.87080359
-4.4234304 -35.970261 40.482914 -0.45382121 -0.26593524 -0.85048503
38.561989 -38.521927 19.818636 -0.53271621 0.84489501 -0.048640177
18.775261 -37.306477 29.705025 -0.40190536 -0.36527613 -0.83966988
11.471843 -36.798115 32.602127 -0.33243403 -0.3631112 -0.87042397
-14.818479 -34.500267 45.675076 0.28957874 0.59953469 -0.74612498
36.093307 -39.924049 23.727146 -0.61145759 0.40168077 -0.68174195
-55.709126 1.46315 15.392056 -0.91124243 0.085541971 0.4028894
-11.457747 -35.757042 44.269913 -0.45614916 -0.16707526 -0.87407881
-12.702026 -36.27557 44.480156 0.25654995 0.70599055 -0.6601209
-15.654313 -35.025875 43.898361 0.3743993 0.74258357 -0.55533296
-22.002949 -32.256504 42.417915 0.50918037 0.72744519 -0.45995519
-24.633188 -31.20356 40.382618 0.58833396 0.69713551 -0.4097136
40.151806 -38.194534 18.161913 -0.62903583 0.73923802 -0.2405017
38.325954 -39.195328 17.741337 -0.55508763 0.83015621 -0.052139625
33.298916 -39.342735 24.255947 -0.24842288 -0.29253453 -0.92342275
16.09124 -38.146473 31.283186 -0.37412825 -0.36750919 -0.85144877
3.1946342 -38.972378 37.741718 -0.41994244 -0.28134349 -0.86284077
1.6309693 -36.466469 37.579872 -0.4337045 -0.30018103 -0.84958327
0.76043236 -37.027954 38.192741 -0.42827448 -0.28887001 -0.85623306
-9.3450508 -36.918274 43.308208 -0.46130568 -0.24635249 -0.85235405
-10.638966 -37.336803 44.202774 -0.054532737 0.41353843 -0.9088521
12.185025 -38.697781 33.284374 -0.35866714 -0.37935552 -0.85290521
5.8490758 -38.809128 36.393841 -0.39572608 -0.28860724 -0.87184101
-7.262219 -37.01054 42.329773 -0.4429903 -0.24584629 -0.86215961
-12.150277 -37.282681 43.050819 0.28868753 0.7945689 -0.53415328
-20.111835 -33.304955 43.001186 0.5024479 0.72690976 -0.46813273
-22.93084 -32.731434 40.481533 0.55709308 0.72296822 -0.40861258
39.268826 -38.501041 15.94433 -0.53641737 0.84114361 0.068802245
21.053648 -38.821522 29.468103 -0.36559555 -0.38126442 -0.84910387
-1.2776361 -38.734222 39.733406 -0.43324432 -0.29018006 -0.85328472
-17.712545 -34.603134 43.404942 0.4531109 0.73854077 -0.49924743
27.284124 -40.981121 27.416115 -0.40746427 -0.2704621 -0.87225169
22.323624 -40.33453 29.400343 -0.3490665 -0.28456062 -0.89284813
18.124479 -39.101875 30.866547 -0.38214192 -0.36249226 -0.85003936
9.7342567 -39.450916 34.732681 -0.40872189 -0.33523726 -0.84885937
-0.32750925 -38.261684 39.262386 -0.40923488 -0.27225283 -0.87086463
-6.7551827 -38.692589 42.542778 -0.34982711 -0.071762882 -0.93406165
30.633974 -40.727253 25.991846 -0.28613901 -0.27538079 -0.91776353
30.028814 -42.305775 26.838203 -0.50389582 0.59487087 -0.62627286
20.664881 -40.587414 30.297287 -0.39101967 -0.29386169 -0.87220919
18.091961 -40.288494 31.297453 -0.3861129 -0.27965707 -0.87903851
-4.081038 -38.799114 41.216743 -0.439899 -0.30573827 -0.844401
-8.9406996 -38.260216 43.556087 -0.013939682 0.59563833 -0.8031317
-14.800222 -36.62418 42.914169 0.39084005 0.76840836 -0.50674701
-18.220316 -35.716114 40.827442 0.48136142 0.78030348 -0.39927143
37.230824 -39.970856 18.774694 -0.54214644 0.82875705 -0.13870464
7.8142581 -39.170029 35.575382 -0.40672278 -0.30336514 -0.8617112
2.5261047 -40.410629 38.501617 -0.42840958 -0.26602545 -0.86353678
-1.8213657 -39.876171 40.510895 -0.44556004 -0.3394458 -0.82840377
-13.083804 -37.702232 42.329674 0.35646686 0.83008128 -0.42883146
-20.939905 -34.314404 39.987778 0.51055729 0.76322669 -0.39600027
28.758459 -40.899246 26.717939 -0.34518188 -0.27071935 -0.89864367
13.035153 -39.947071 33.509495 -0.38367853 -0.30983198 -0.86993963
-2.7330434 -41.011909 41.449505 -0.27989259 0.2410752 -0.92927003
-12.067769 -38.822746 40.979347 0.32745564 0.82270253 -0.46468633
35.395374 -40.92141 20.282597 -0.58064067 0.80152422 -0.142882
17.581841 -42.687717 32.160809 -0.39763725 -0.28525284 -0.87207538
11.170936 -41.080444 34.684471 -0.40069249 -0.27340919 -0.87446719
5.6797314 -40.935852 37.166283 -0.39647198 -0.25702831 -0.88133222
7.9162302 -41.164452 36.199615 -0.4027535 -0.26814821 -0.87514925
4.5897064 -41.827549 37.783516 -0.41851842 -0.26406434 -0.868972
0.79921216 -40.928722 39.396725 -0.41807878 -0.26086867 -0.87014812
0.12687171 -41.676071 40.132362 -0.38918045 0.011378182 -0.92109126
-5.8543777 -39.808743 42.579571 -0.01672258 0.52060884 -0.85363156
-9.2823744 -39.033512 42.369144 0.25055602 0.79129207 -0.5577442
-13.441917 -38.755634 39.510681 0.40166801 0.84061503 -0.36335826
-15.978119 -37.178059 40.394623 0.42710054 0.82345891 -0.37349775
3.1666219 -42.391674 38.789124 -0.42079002 -0.27336544 -0.86498964
20.241892 -44.469513 31.651924 -0.40429425 0.53630602 -0.74089271
2.0523531 -42.949123 39.43845 -0.076888248 0.67890519 -0.73018891
-3.6856587 -41.698036 40.178303 0.19391255 0.86180383 -0.46871328
-7.0837798 -40.259476 41.118793 0.20878573 0.8546235 -0.4754231
19.526373 -42.826241 31.372871 -0.37278357 -0.27684015 -0.88565904
10.327703 -42.268353 35.364113 -0.41631421 -0.28180361 -0.86444736
7.1104164 -42.743664 36.972187 -0.37976077 -0.24419788 -0.89227194
-8.4605131 -40.480358 40.336502 0.28201202 0.87032932 -0.40372783
-16.367012 -37.905899 38.347759 0.42206565 0.82800055 -0.36915541
14.29325 -42.496758 33.583439 -0.38868281 -0.28839961 -0.87507218
12.483358 -43.280647 34.603893 -0.40606958 -0.28751528 -0.86743444
-23.246489 -47.265457 9.2504711 0.31969813 0.87138957 -0.37212011
-0.15706456 -42.574738 39.26511 0.092460871 0.79882675 -0.59441298
-1.3695575 -43.380981 37.787388 0.12648156 0.92017663 -0.37050948
-11.209641 -39.897903 39.394341 0.35760039 0.85339463 -0.37926176
12.257271 -44.448269 35.29221 -0.32311574 0.37875688 -0.86725974
4.8995237 -43.5452 38.320747 -0.2195736 0.56648988 -0.79427743
-1.3003783 -42.072128 40.024387 0.020463791 0.82324153 -0.56732219
-2.8551681 -42.801678 38.514355 0.18912473 0.88841873 -0.41826299
-16.517365 -38.897182 35.795601 0.40624449 0.83515745 -0.37077954
33.607597 -41.823704 13.15763 -0.45999447 0.8878848 0.0080980789
-7.183145 -41.621487 38.624001 0.26456192 0.88586271 -0.38112226
32.161465 -41.211517 26.484583 -0.29444838 -0.300744 -0.9071126
11.651538 -45.440056 33.289318 -0.10029311 0.93967438 -0.3270371
9.9900703 -44.285271 36.21579 -0.31882569 0.45280647 -0.83265632
-11.617103 -40.647602 36.906475 0.3250657 0.88493174 -0.33350906
7.5066781 -44.058407 37.214729 -0.2403671 0.52172923 -0.8185488
2.6122329 -43.790703 37.363842 0.066360585 0.92877221 -0.36466211
-6.6352215 -42.227009 37.324757 0.26915124 0.90017599 -0.34240431
-9.9618101 -41.64291 35.895748 0.30495417 0.90156126 -0.30690423
0.060523737 -44.241219 35.600864 0.093249515 0.95578915 -0.27887556
-5.3502712 -43.051399 36.006157 0.22537541 0.92809951 -0.29637328
-2.0349052 -43.823265 36.044556 0.19267549 0.94461423 -0.26566902
5.0340357 29.886032 21.403341 -0.39380124 -0.14787486 -0.90722305
33.490295 47.286148 -16.871637 0.45252052 0.81574696 -0.3602528
59.099926 27.55901 -1.1134503 0.26325771 0.083828017 -0.96107656
61.306778 20.689367 -0.75741732 0.13254941 0.0013958392 -0.99117541
-32.628204 -3.5924447 46.953548 -0.55730766 -0.22756402 -0.79851282
25.704775 8.7202778 2.0660689 -0.13018091 -0.15023661 -0.9800418
40.439438 2.970386 2.9189906 0.076389238 -0.23264425 -0.96955729
26.628521 -4.0863237 5.0262098 -0.10338438 -0.31760299 -0.94257104
-1.3687496 -36.571178 39.10672 -0.41901079 -0.2605305 -0.86980104
29.416183 -43.841049 15.32706 -0.38720235 0.92165959 -0.024859615
26.873089 -44.764221 16.165329 -0.38014561 0.92309892 -0.058117308
4.326098 -37.847099 36.699348 -0.42454281 -0.31770846 -0.8478353
51.698399 27.892267 1.8978915 -0.24575785 -0.16076866 -0.95590609
49.729507 28.264847 2.4883583 -0.30915108 -0.14388105 -0.94006586
18.841129 -44.622112 32.33992 -0.3626962 0.52140236 -0.77239311
17.053116 -43.951019 33.042156 -0.4184505 -0.21137875 -0.88329965
53.009991 26.434074 1.952873 -0.16894673 -0.14134264 -0.975438
51.333782 26.1628 2.2825019 -0.23734562 -0.17314804 -0.95586962
53.939468 23.802082 2.102411 -0.2683726 -0.13592876 -0.95367688
54.238297 22.237677 1.8582466 -0.57946575 -0.1984279 -0.79047185
52.77359 23.33448 2.6010063 -0.36524189 -0.17678656 -0.91397208
52.380428 22.637857 2.6043198 -0.083634198 -0.10962819 -0.99044782
53.915775 20.938698 2.6627462 -0.38701934 -0.1968406 -0.9008162
33.988102 -38.582993 -20.00083 -0.66031134 0.73347205 0.1612692
54.865856 19.046118 2.5228486 -0.42210174 -0.14568679 -0.89476562
53.454716 19.544865 2.9629469 -0.27350006 -0.11511775 -0.9549585
60.977638 14.351283 0.38730624 -0.98308629 -0.026664905 0.18119161
31.118567 -42.832359 -0.2602075 -0.52717328 0.8497411 0.0053192596
60.464962 14.264951 1.1762643 -0.4972299 -0.29892188 -0.81449872
58.807388 15.264976 1.3768603 -0.32301131 -0.23165172 -0.91760623
57.270241 15.2284 2.2412994 -0.40845031 -0.21082284 -0.88810027
28.374598 -44.239269 12.552143 -0.40401411 0.91391277 -0.039192233
10.078123 32.045486 9.4917793 -0.94386065 -0.013009146 0.33008769
60.17297 13.716591 -0.92944443 -0.85290337 -0.0017742226 0.52206576
10.495506 30.362501 10.617455 -0.93317002 -0.046447083 0.35642159
61.064011 12.104808 1.6033356 -0.70083761 -0.15388066 -0.69652534
57.70414 15.213058 -7.7929034 -0.90685791 -0.17917164 0.3814528
60.54789 12.030039 -0.32266626 -0.9419511 0.015214945 0.33540532
9.2715931 30.876352 7.1537933 -0.99613619 0.010230637 0.087224402
29.98295 -43.219803 -8.4097376 -0.56734228 0.82065409 0.068187922
11.414244 27.058321 12.319613 -0.90828186 -0.063296482 0.41354278
10.582801 28.205561 10.453614 -0.92363733 -0.056579567 0.3790684
58.476273 13.081053 -6.958672 -0.91543299 -0.076638199 0.39510629
61.182503 10.50023 1.4785347 -0.57654524 -0.15714714 -0.80181074
9.9853191 28.443821 9.0446978 -0.93583316 -0.034396939 0.35076067
13.097736 26.408663 15.661229 -0.89633739 -0.075317658 0.43692833
12.666101 24.461674 14.440129 -0.90197396 -0.037387747 0.43016881
56.591331 13.7903 -10.553784 -0.88919789 -0.10548683 0.44519621
58.820919 10.244809 -6.6126146 -0.91636288 -0.042144194 0.39812446
13.466898 22.585979 16.341436 -0.93202281 -0.014186574 0.36212185
57.555592 10.948217 -9.3012676 -0.90501392 -0.080076121 0.41777712
9.8297653 26.140768 8.3806677 -0.93808132 -0.033084117 0.34483144
59.779007 9.5161009 -4.4407854 -0.91929609 -0.042571913 0.39125726
25.291166 -45.335083 18.962818 -0.38243493 0.91914856 -0.094389871
56.894138 10.660694 -10.854227 -0.90560824 -0.087290034 0.4150351
11.033072 24.450968 11.044933 -0.91273922 -0.040368751 0.40654334
13.199677 20.720741 15.580596 -0.92772967 -0.037330423 0.37138146
59.810123 7.2380633 -4.4604268 -0.91536486 0.013208186 0.40240863
23.411711 -45.284119 23.939484 -0.27531993 0.95502973 -0.11007813
58.645672 7.9427838 -7.1441736 -0.91763395 0.033076465 0.39604786
31.72262 -39.728649 -20.074959 -0.36100477 0.72087401 0.59162176
32.669315 -39.928699 -19.253534 -0.63927972 0.74493915 0.19075428
10.378861 23.8228 9.6469078 -0.92238289 -0.056197841 0.38216692
11.984186 24.03516 13.077105 -0.90613812 -0.042806078 0.42081046
57.964333 8.2344561 -8.9172726 -0.913957 0.046769615 0.40310699
14.549595 19.747641 19.103153 -0.98447835 -0.17516594 0.010915603
12.515496 20.99008 13.909054 -0.91294903 -0.038774602 0.40622735
59.151348 4.6986489 -5.6770234 -0.92711526 0.072160952 0.36776367
11.867649 18.950226 12.323752 -0.91931403 -0.021361781 0.3929444
10.701555 22.344551 9.9145994 -0.92321295 -0.074839085 0.37693113
13.211437 18.991083 15.370036 -0.92193002 -0.023205539 0.38666078
59.14032 6.118227 -5.6123028 -0.91083026 0.059694052 0.40844202
10.226677 21.404152 8.9382925 -0.91732067 -0.042431593 0.39588171
11.860016 20.919859 12.544094 -0.91271865 -0.04613189 0.40597606
6.7560096 -25.308239 25.642576 -0.96063328 0.013797318 0.27747664
26.584488 -45.193851 12.676229 -0.38253343 0.92216355 -0.057294723
6.5263567 -21.018019 29.171984 -0.9504624 -0.063223965 0.30434176
35.044529 -41.052334 18.03854 -0.45359889 0.89113611 -0.011154398
14.485881 15.799035 18.758045 -0.94220698 -0.033620637 0.33334002
16.838243 -44.814228 32.609245 -0.22941251 0.87324947 -0.42988971
58.458809 2.8145289 -6.9459729 -0.91386861 0.093865909 0.39501059
11.840421 16.923241 12.264412 -0.91053426 -0.049210094 0.41049442
18.964821 -49.832329 -9.8890905 -0.47752243 0.87426418 -0.087375335
9.9648228 18.877626 7.9264431 -0.93455559 -0.038808599 0.35369468
13.409859 16.706467 15.587367 -0.92958087 -0.055688754 0.3643873
59.477757 1.9103441 -3.8788402 -0.94017273 0.043431364 0.33791837
13.561316 14.969689 15.853015 -0.9297086 -0.012531698 0.36808252
12.690833 14.976891 13.736629 -0.91493124 -0.01919692 0.40315288
14.864053 13.653602 19.229973 -0.93783844 -0.046507955 0.3439419
59.083401 -0.14034846 -5.0293498 -0.90239507 0.11913927 0.4141123
45.220512 11.431254 -35.043427 -0.88005441 -0.17222013 0.442543
59.106335 -1.9739399 -3.9045365 -0.8802858 0.23547041 0.4118866
10.22194 16.75256 8.1916437 -0.93279862 -0.049537551 0.3569774
13.307065 12.471396 15.292348 -0.91723293 -0.033494238 0.39694062
14.493079 11.95008 18.191483 -0.92818797 -0.033258989 0.37062225
15.226715 11.127995 19.802267 -0.91738737 -0.043536033 0.39560723
11.628322 13.307138 11.357215 -0.91908181 -0.030196644 0.3929081
12.079099 13.213854 12.63969 -0.92163771 -0.029358527 0.3869392
13.974243 11.877219 16.777456 -0.93241578 -0.037586972 0.3594273
45.741238 8.9062414 -34.82539 -0.8753956 -0.15415967 0.45816731
13.695526 10.91285 15.792116 -0.92850286 -0.032682978 0.36988413
14.487862 9.4553585 17.872326 -0.9267922 -0.034934703 0.37394637
10.232572 14.499155 8.092802 -0.93411463 -0.040532816 0.35466447
12.757116 11.438553 13.62604 -0.92174858 -0.068442605 0.38170034
15.404039 8.5523787 19.920784 -0.91885555 -0.046548128 0.39183882
10.94493 12.665429 9.716507 -0.92782605 -0.048848014 0.36980093
13.417658 9.118165 15.230341 -0.93384588 -0.037788704 0.35567394
11.666703 11.007974 11.140001 -0.91182393 -0.031120079 0.40940046
15.338975 7.0811763 19.594198 -0.91882741 -0.043190185 0.39228907
10.373404 11.25796 8.1577291 -0.94704151 -0.030944107 0.31961682
11.025962 10.909119 9.6171665 -0.92941475 -0.034715086 0.3674005
46.442902 4.7854981 -34.061852 -0.90016347 -0.041536152 0.43356708
58.589684 -8.3176718 -0.23612741 -0.9274019 0.25416213 0.27445847
11.542186 7.1580677 10.730734 -0.922373 -0.022903806 0.38562095
14.290843 7.3314424 17.169226 -0.92534238 -0.05527674 0.37508124
58.360909 -7.7762508 -1.5105463 -0.91736853 0.2842848 0.27859846
57.68129 -9.2433939 7.431581 -0.30470026 -0.16120912 -0.93870622
13.027908 8.5563917 13.910271 -0.92167938 -0.03760251 0.38612589
25.0816 -45.484154 14.417439 -0.28600687 0.95419925 -0.087772287
13.471996 6.0841489 14.834892 -0.91651905 -0.020500964 0.39946541
46.422592 3.0133774 -34.419312 -0.92446679 -0.051674481 0.37774464
9.9231787 8.671525 6.599967 -0.99590391 -0.082572915 -0.036838386
12.459617 7.8601227 12.765016 -0.90531397 -0.022168778 0.42416409
12.800362 5.6696134 13.228587 -0.90614426 -0.011149544 0.422822
13.719574 3.4773529 15.332854 -0.91332352 -0.024519248 0.40649602
14.124343 5.7234268 16.380054 -0.92919821 -0.049374714 0.36626887
15.006685 4.6259637 18.469093 -0.93215805 -0.042096563 0.35959598
15.543317 4.5495625 19.812424 -0.92410231 -0.037806652 0.38027033
57.486393 -9.6852198 -2.4864042 -0.90629274 0.30709574 0.29038882
58.296669 -10.21714 0.44902027 -0.88905865 0.32495886 0.32245374
14.761639 3.0445907 17.689436 -0.92886531 -0.032724727 0.36896926
15.602926 2.0081301 19.95808 -0.93832475 -0.03280288 0.34419557
10.399774 6.9598651 7.8211451 -0.94730055 -0.059756197 0.31472349
12.198442 4.7056427 12.095365 -0.91327864 -0.0205711 0.40681568
46.98877 -0.58563638 -33.964935 -0.95916826 0.00071575097 0.28283527
57.55925 -10.779158 -0.57248169 -0.90686971 0.31339729 0.28172573
11.443954 4.7440767 10.131188 -0.93393594 -0.04001664 0.35519341
15.311721 1.1145866 18.976912 -0.93805975 -0.057206079 0.34171832
10.755367 4.9821191 8.2392197 -0.9598766 -0.076369412 0.2698234
12.833637 1.697646 13.174671 -0.91155428 -0.043325841 0.40889096
51.403351 -4.1063957 -21.850718 -0.90080428 0.15324005 0.40628707
15.968047 -0.8345328 20.418322 -0.9293862 -0.0013352348 0.36910623
54.045212 -13.60188 9.8454542 -0.37530562 -0.28549045 -0.88183945
55.105049 -13.900875 9.4787388 -0.38275772 -0.27502829 -0.88196146
13.834947 1.189247 15.337859 -0.91476786 -0.010639001 0.40383986
55.55669 -16.417961 10.185974 -0.35670584 -0.28716415 -0.88898689
53.526394 -14.729713 10.445551 -0.26770642 -0.24299464 -0.93235558
11.749439 2.7109942 10.867171 -0.92293608 -0.035321515 0.38332945
13.382784 -0.024265725 14.255522 -0.91701669 0.0029125751 0.39883816
15.25004 -0.11196806 18.532793 -0.92220837 0.0084257573 0.38660151
50.78273 -8.6932611 -20.976753 -0.89926887 0.24811405 0.36021498
46.811066 -3.7094331 -33.183064 -0.92215121 0.15465127 0.35457036
50.691002 -6.0376315 -22.997353 -0.91094333 0.17066121 0.37557557
11.176384 1.2565608 8.8770037 -0.94736052 -0.051272247 0.31603673
11.847455 0.69780153 10.842547 -0.92639703 -0.030195169 0.37533548
55.107056 -18.344206 10.908557 -0.24038269 -0.22604486 -0.94399148
14.11386 -1.6517496 16.146917 -0.92168462 0.005136814 0.38790616
16.02417 -2.9743762 20.680984 -0.91329539 -0.018425411 0.40688086
52.273933 -16.641106 11.075345 -0.17757753 -0.20105904 -0.96334904
15.072299 -2.069468 18.457806 -0.92082 0.025290988 0.38916698
12.170887 -1.9825439 11.472051 -0.93739098 -0.049486578 0.34474498
13.204932 -2.4436789 13.988568 -0.92293441 -0.020281008 0.38442263
15.353256 -4.2918987 19.052332 -0.92130297 -0.047677934 0.38591143
46.642204 -6.6245122 -32.282349 -0.91911864 0.15660189 0.36152011
49.141624 -6.5799561 -26.26613 -0.90297151 0.19515514 0.38282746
49.954178 -7.5289407 -23.957802 -0.89886397 0.22488274 0.37612656
16.089802 -5.7978873 20.347744 -0.92584443 -0.037635423 0.37602624
11.746449 -3.651253 9.9796228 -0.96384692 -0.088932976 0.25117731
12.814168 -4.1373954 12.590096 -0.93536973 -0.04066202 0.35132623
14.829631 -4.8645687 17.603708 -0.91839981 -0.03834961 0.39379069
49.269196 -10.219451 -23.799515 -0.90671599 0.22950016 0.35383019
16.197269 -7.0709229 21.183012 -0.95689678 -0.04291641 0.28723988
50.772064 -12.033314 -18.352381 -0.88860989 0.31032622 0.33774278
50.370228 -11.146111 -20.38773 -0.90403557 0.25751483 0.34118274
14.84659 -7.1170073 17.433254 -0.91554415 -0.038125742 0.40040657
46.321606 -8.2084846 -32.528221 -0.95190179 0.097081028 0.29061693
46.825607 -10.169257 -30.222389 -0.94088286 0.17903237 0.28755316
13.873086 -4.9381018 15.418917 -0.9242577 -0.029612057 0.38061881
49.648655 -13.440339 -20.450644 -0.89733696 0.31937987 0.30460295
11.912165 -5.5930161 10.199196 -0.96227455 -0.094566748 0.25511709
13.119984 -6.6587362 13.491544 -0.93287683 -0.038918216 0.35808694
49.865406 -14.252283 -18.591372 -0.88949519 0.33572355 0.3099806
14.474844 -8.2009974 16.474789 -0.91992021 -0.019299861 0.39163041
46.509274 -10.346971 -31.474264 -0.96649021 0.11933364 0.22728013
48.84103 -12.851412 -23.126417 -0.89482021 0.27838224 0.34899879
48.026592 -13.44306 -24.585867 -0.8929795 0.28226918 0.35058784
48.536205 -14.984444 -21.824572 -0.88492602 0.34120575 0.316993
48.917747 -15.984581 -19.597881 -0.89210647 0.33945653 0.29818651
14.040906 -9.5908108 15.565158 -0.93182641 -0.034877796 0.3612245
16.824854 -10.355296 22.11554 -0.94196391 -0.067863636 0.32878318
12.803905 -7.7789268 12.32477 -0.94681799 -0.0471825 0.31829143
15.143979 -10.876735 18.112774 -0.91518122 -0.019166498 0.40258649
15.638749 -8.3496637 19.131329 -0.92741662 -0.023492761 0.37329149
16.573122 -12.324054 21.175539 -0.91800165 -0.017601494 0.39618579
49.378498 -16.572607 -17.769981 -0.8775658 0.36596674 0.30975243
12.434855 -8.9037142 11.239758 -0.96875226 -0.073512219 0.23688592
46.28447 -12.278305 -30.549276 -0.94289374 0.23338863 0.23765776
14.555274 -11.999822 16.28664 -0.93116665 -0.061227988 0.3594161
13.674141 -10.610698 14.263315 -0.9359051 -0.054376174 0.34802988
17.287172 -15.29547 22.659678 -0.91395515 -0.030521626 0.40466568
15.210229 -13.854639 17.892075 -0.92515612 -0.028159991 0.37854081
17.474653 -17.292711 22.830076 -0.9240061 -0.026367126 0.38146743
18.011993 -17.81152 24.297443 -0.94137561 -0.023064004 0.33657092
14.243299 -13.596395 15.386572 -0.92899907 -0.021729555 0.36944357
16.383913 -15.019229 20.769268 -0.91816062 -0.031764012 0.39493328
17.264936 -18.572336 22.282967 -0.91945672 -0.035272215 0.39160606
-44.963886 1.689665 49.657185 -0.44946709 -0.1091902 -0.88659847
14.859488 -15.703115 16.905352 -0.93195975 -0.058545168 0.35780349
13.553923 -13.59406 13.685729 -0.95872992 -0.081784107 0.27230188
15.992906 -16.96656 19.482502 -0.92627311 -0.054441053 0.37289995
18.002237 -19.758045 24.353882 -0.93895924 0.011582565 0.34383318
44.820641 -18.664156 -28.319149 -0.89146346 0.35450324 0.28217071
20.679459 -46.06654 23.743139 -0.24292734 0.95349222 -0.17843442
44.401829 -21.146484 -26.313293 -0.87052411 0.39909115 0.28794813
16.526413 -20.429789 20.444109 -0.93238568 -0.038451787 0.35941386
14.925249 -17.971289 16.465023 -0.94497931 -0.079125017 0.31741664
16.883591 -19.595575 21.402025 -0.92998433 -0.030617272 0.36632198
43.631634 -21.303764 -28.461748 -0.87276757 0.397156 0.28380242
15.697236 -18.378063 18.383766 -0.93185115 -0.054596536 0.35870981
15.532141 -21.270517 17.946945 -0.94687444 -0.065762609 0.31480804
14.664864 -18.993383 15.222342 -0.9615311 -0.090284556 0.25943512
17.108551 -22.942177 21.713377 -0.93543851 -0.052012686 0.34964183
17.639111 -22.800859 23.217306 -0.93674362 -0.049795322 0.34645614
16.31225 -23.130545 19.519001 -0.93980557 -0.075091332 0.33335686
17.214979 -24.838697 21.767912 -0.93519539 -0.073625803 0.34639391
18.654518 -27.530125 24.975447 -0.93318897 -0.033092961 0.35785934
15.398649 -22.103508 17.027489 -0.95390344 -0.1045452 0.28131577
16.78957 -26.351572 20.070383 -0.9437598 -0.08004009 0.32079732
19.156784 -27.866913 26.134178 -0.96063972 -0.03531367 0.27554354
17.605858 -26.96353 22.228172 -0.93535942 -0.049520824 0.35021478
17.253672 -28.108171 21.21756 -0.94371951 -0.062867329 0.3247169
18.974102 -30.292177 25.466328 -0.95487934 -0.091620773 0.28250831
18.235428 -29.575247 23.793606 -0.93460709 -0.057870746 0.35094234
18.318697 -30.667883 23.427103 -0.93900663 -0.098664165 0.32944199
-11.149292 -19.833748 30.856993 -0.62019211 -0.53592068 -0.57284451
29.189192 -43.900051 -6.0788722 -0.55548447 0.83052284 0.040852681
31.220295 -41.270138 -18.415524 -0.58558595 0.76749629 0.26084197
28.720905 -44.374546 0.29223934 -0.50095814 0.86540776 -0.010501518
-7.9071512 -23.081369 30.880436 -0.55628163 -0.55761945 -0.61612606
-9.1686573 -22.972872 31.921217 -0.60366994 -0.54636735 -0.5805732
-10.669322 -23.72501 34.333008 -0.62510717 -0.55428904 -0.54954946
-13.084684 -23.630743 36.978546 -0.62127805 -0.54138827 -0.56649125
29.10915 -42.600033 -17.914438 -0.37079877 0.81230539 0.45018688
29.259596 -44.076893 8.5835114 -0.45160457 0.89221805 0.00052873383
30.298691 -42.379932 -17.33181 -0.62292308 0.77111024 0.13174187
29.433908 -43.214897 -11.733281 -0.57453299 0.81598639 0.063859351
29.160583 -44.039047 -3.1625216 -0.52405417 0.85132217 0.024856171
29.063112 -43.434681 -16.286654 -0.59102315 0.80427617 0.061899431
28.691204 -44.329159 5.2229052 -0.46744987 0.88397741 0.0086331973
2.6260781 -44.973083 34.619564 0.096965477 0.97829747 -0.1831167
27.374928 -44.846428 -10.10832 -0.55595893 0.82964438 0.050988566
27.429634 -45.091412 -3.9672079 -0.50175613 0.86500376 -0.0030387754
27.067562 -45.120739 3.0258365 -0.46476334 0.88526088 -0.017553495
24.495707 -46.900967 -13.833838 -0.62235302 0.77904981 -0.075881995
28.619049 -43.757313 -13.808779 -0.60403115 0.79692459 0.0075970441
13.522225 62.344261 3.2652421 0.045549799 0.96131736 -0.2716507
-52.089989 7.1136799 23.08087 -0.9128958 0.081019521 0.40007138
27.775257 -44.416573 -16.213675 -0.60230416 0.79823154 -0.0074941171
30.580948 -43.222313 6.4399824 -0.47847041 0.87783998 0.02151655
-35.275421 -24.619432 37.87841 -0.71080405 -0.5450564 0.4446021
-48.083313 -21.506357 19.399811 -0.7924493 -0.41217053 0.44959933
32.513378 -40.41283 -16.336407 -0.6771782 0.72985351 0.093506932
27.193731 -44.858192 -13.191416 -0.58194345 0.81305319 0.016920308
-44.79731 -22.387091 24.327078 -0.77669078 -0.44545376 0.44533396
-0.67159647 56.75425 -22.900284 -0.0013395948 0.97762781 -0.21033774
-3.7312977 56.656116 -22.406416 -0.030576237 0.96632695 -0.25549448
26.971243 -45.316589 -6.9466138 -0.52146232 0.85260147 0.033879407
-44.184254 -0.58994251 50.278858 -0.0094778212 0.10855193 0.99404562
-12.894338 57.912853 -10.654366 -0.23057561 0.9711169 -0.061375439
-17.492887 57.587543 0.078431427 -0.3388927 0.93896991 -0.05905252
6.5472422 -23.799351 26.186953 -0.84785897 -0.27979875 0.4503864
-19.722647 56.682819 -2.8951905 -0.35414836 0.93475825 -0.028389445
26.23815 -45.684017 0.98769873 -0.46698394 0.88406432 -0.018876363
-14.522882 56.691849 -17.097124 -0.20757958 0.96619904 -0.15287334
-18.071234 56.371422 -14.304163 -0.23818734 0.96382046 -0.11965308
36.541317 32.172848 1.9800731 0.011861056 0.18914676 -0.98187721
-19.736069 56.067265 -11.950379 -0.29609272 0.9516651 -0.081624269
32.440037 33.570999 2.2052848 -0.015228961 0.20583433 -0.9784683
27.977556 -44.608486 10.313213 -0.40319228 0.91419673 -0.040992066
-30.318779 47.336128 30.330179 -0.6529097 0.74230564 0.15063642
-32.041508 46.725811 25.512308 -0.62611258 0.76797616 0.13489084
54.835167 15.862162 2.8528256 -0.2957899 -0.2235574 -0.92872518
-33.543495 45.654434 25.351761 -0.2729325 0.95995474 -0.063203461
9.7389832 31.707069 6.2959819 -0.50291282 0.16705631 -0.84803945
9.3302803 33.499897 7.3617954 -0.97852087 0.087189868 -0.18680172
57.025631 13.645768 2.7148695 -0.34911054 -0.26076564 -0.9000684
58.703632 12.591626 2.0708992 -0.4184067 -0.21666351 -0.88203895
9.7836275 28.153238 5.6152515 -0.65775734 0.11998249 -0.74361241
59.847736 10.266354 2.1593747 -0.43307838 -0.2051125 -0.87770832
61.513832 8.1556063 1.9880941 -0.35036922 -0.20235203 -0.91449171
59.254875 8.9089375 2.5691762 -0.49712035 -0.19038351 -0.84653735
9.2469282 28.527987 6.8944864 -0.99223942 0.0046792738 0.12425435
57.705021 -7.1097732 6.7873197 -0.20736483 -0.23990044 -0.94839215
9.1588802 26.598356 6.2917399 -0.99759614 -0.020390356 0.066229299
57.359741 -5.5516968 6.5556836 -0.089529812 -0.18808836 -0.97806299
60.890415 6.296154 2.5846684 -0.67413026 -0.16824979 -0.71919423
59.448151 7.4592209 3.0294161 -0.41332826 -0.19218616 -0.89006984
9.3439283 25.531284 5.6366005 -0.75517893 0.059030034 -0.6528554
9.7439528 23.490347 7.8208079 -0.9584341 -0.041754358 0.28224212
15.247561 21.51642 3.3349323 -0.2563459 0.022968555 -0.96631217
20.385851 -48.191986 2.0162923 -0.35858932 0.93244779 -0.044212483
21.581856 -47.766422 3.5617332 -0.40977031 0.91204822 -0.016011082
26.044926 -45.701229 -15.134279 -0.60005456 0.79971457 -0.019780509
9.3496256 22.892563 5.3232918 -0.67986542 0.016200911 -0.73315793
14.598653 17.591751 18.750427 -0.93068033 -0.027234703 0.36481825
11.413212 20.277349 4.4618993 -0.3465372 0.0097759962 -0.9379853
9.4212723 21.817463 6.7458858 -0.97180444 -0.010639904 0.23554799
9.2241306 20.372017 5.6630845 -0.93276185 -0.039509211 -0.35832155
8.1253757 -21.234915 31.89353 -0.59785652 0.093986645 0.79607415
9.4109755 17.442791 6.2262697 -0.99312246 -0.047667898 0.10693702
-5.0527039 24.848566 12.390419 -0.51363754 0.09573549 -0.85264951
-3.8819387 22.776712 11.63081 -0.43163747 0.045451138 -0.90090138
12.751927 15.848728 4.0258274 -0.31257641 -0.041449193 -0.94898784
-39.348438 29.964476 40.39949 -0.89538527 0.35529217 0.26842639
59.670795 0.351338 -3.561209 -0.93463635 0.087090671 0.34477559
10.243263 18.458973 4.8674173 -0.44622794 -0.0027007817 -0.89491528
9.7126646 16.899601 5.1789646 -0.5544129 -0.013299817 -0.8321355
15.751487 15.189658 3.3470879 -0.2468811 -0.042090654 -0.96813118
14.660375 13.404268 3.61847 -0.2446555 -0.062815435 -0.96757323
17.571209 12.908475 2.9753313 -0.21661514 -0.063852645 -0.97416663
13.457148 13.064798 4.0291653 -0.30747166 -0.07775446 -0.94837517
59.473461 -3.4092221 -2.4522429 -0.88905281 0.24362119 0.38760015
9.9388132 13.577319 7.0386109 -0.96314007 -0.065510713 0.26090154
58.745487 -6.084939 -2.4615116 -0.9010489 0.26111695 0.34630734
55.907295 -5.2584944 7.1208072 -0.30046728 -0.25545454 -0.91894633
9.6807528 13.230091 5.4609885 -0.97113508 -0.060840469 -0.23064063
-10.771398 20.096809 15.985459 -0.5931412 0.017990502 -0.80489737
59.197346 -5.4026833 -0.96599627 -0.94164425 0.27197492 0.19833235
-7.9787736 18.880154 14.030784 -0.55588549 -0.00044925764 -0.83125877
56.514431 -6.9264503 7.5017872 -0.33648211 -0.24392027 -0.90955085
-10.932179 17.462154 16.16935 -0.60895514 -0.02123422 -0.79292035
14.109861 10.176323 4.0728545 -0.25075772 -0.10772268 -0.96203762
56.427837 -10.365454 8.1204939 -0.30794057 -0.2010821 -0.92991322
-13.167606 19.186827 17.924517 -0.62910306 -0.0094113164 -0.77726501
54.900391 -8.7583799 8.2360477 -0.23490649 -0.22890578 -0.94468039
10.129041 10.818136 5.336401 -0.61990517 -0.12363239 -0.77487588
54.860111 -11.560931 8.9736767 -0.3294521 -0.23647818 -0.91407847
54.093891 -10.044537 8.8283405 -0.2256369 -0.3058008 -0.92497236
-13.184778 15.984402 18.001705 -0.62082237 -0.03564214 -0.7831406
10.637421 8.6083622 5.5147247 -0.51040673 -0.16426896 -0.84409755
10.2969 5.6566782 6.3089247 -0.81467777 -0.1770819 -0.55221564
-14.300329 13.095716 19.090582 -0.63973087 -0.084473163 -0.7639429
-16.15803 12.074812 20.838263 -0.6759398 -0.099732511 -0.73017728
-41.14991 17.023138 46.064754 -0.76205486 -0.092284724 -0.6409024
14.695491 2.9109144 5.195652 -0.3054159 -0.22776674 -0.92457747
12.725556 4.3038626 5.630733 -0.36325344 -0.21428828 -0.90671247
-12.781741 11.198666 18.203096 -0.62434757 -0.11615066 -0.77246302
12.304747 2.1344168 6.2289 -0.35860938 -0.2275479 -0.90532935
11.09894 3.0375249 9.1982183 -0.9519189 -0.037205726 0.30408251
-14.226403 9.3775349 19.619108 -0.62875676 -0.12840371 -0.76692724
56.827812 -14.805595 2.3371716 -0.90013385 0.39434567 0.18506922
-17.676048 10.437643 22.615278 -0.69644195 -0.13194777 -0.70537812
10.415788 2.9806616 6.9036317 -0.94035441 -0.16929255 -0.29508245
11.0122 -0.3561419 8.3011198 -0.98050469 -0.094503306 0.17227787
-15.170383 7.7104959 20.711473 -0.66115069 -0.14321072 -0.73645806
11.347831 -0.43263236 7.3470817 -0.53317243 -0.25565362 -0.80645412
55.679066 -17.286055 2.0675616 -0.8668679 0.455787 0.20198572
55.061333 -18.982025 3.9801524 -0.8654049 0.47279441 0.1659514
-16.127087 6.4929304 21.856565 -0.67696333 -0.16059631 -0.71828228
11.364093 -2.6828237 7.9784465 -0.72854108 -0.28693742 -0.62200874
-14.264092 4.0523386 20.759048 -0.64738548 -0.19175608 -0.73764598
53.970718 -21.286842 4.7855115 -0.86635274 0.47954285 0.13954093
11.823203 -5.2176681 8.7159872 -0.69859672 -0.3130728 -0.64338797
-14.533907 2.705018 21.461641 -0.63392842 -0.21883827 -0.74178469
53.492657 -21.818039 3.6429183 -0.85468853 0.48623776 0.18187965
13.76839 -6.9555497 8.752739 -0.2982682 -0.35666886 -0.88533801
12.098463 -6.8408628 9.2234735 -0.85653186 -0.2993612 -0.42039984
-6.4152412 -1.618939 16.442671 -0.54716086 -0.27791512 -0.78954303
-15.436118 0.77445138 22.730093 -0.66906136 -0.22410031 -0.70861554
-16.802061 2.1283569 23.76499 -0.7019816 -0.22533661 -0.67560732
52.475815 -24.321194 6.5842566 -0.79067403 0.5659799 0.233455
52.914928 -23.202246 5.1571078 -0.82295644 0.53579736 0.18884893
51.265942 -25.779072 5.5934119 -0.76454461 0.62517577 0.1569294
-11.4103 0.13259703 19.560881 -0.63005632 -0.24592654 -0.73657942
12.655343 -10.335942 10.69889 -0.93282413 -0.282783 -0.22332242
51.361786 -25.060425 3.5514693 -0.78850222 0.57650393 0.21426035
-18.822277 0.27674696 26.529221 -0.71361488 -0.25716329 -0.65162939
13.145854 -10.747149 12.710297 -0.9594391 -0.08950115 0.2673316
-14.471527 -2.827836 23.399775 -0.63540882 -0.29875228 -0.7120412
-15.85216 -1.8460968 24.196487 -0.67600328 -0.28904986 -0.67784202
50.521332 -26.550385 6.6063204 -0.7554673 0.61895335 0.2148625
-13.856967 -4.8296022 23.564026 -0.62405467 -0.31491047 -0.71511334
13.600023 -14.795496 12.577729 -0.67895901 -0.43879613 -0.58861923
-18.331156 -2.7763991 27.209032 -0.70721453 -0.28474152 -0.64712429
-17.892847 -5.5436692 28.070019 -0.69966722 -0.34029382 -0.62822443
-11.07664 -6.7937675 22.252274 -0.60664493 -0.33936122 -0.71889907
-15.779593 -4.7164249 25.434225 -0.68126291 -0.31397727 -0.66128588
13.936582 -16.5236 13.869862 -0.96900642 -0.23440526 0.077978395
-43.781551 0.15456609 49.246849 -0.44946709 -0.1091902 -0.88659847
-17.750868 -6.6343346 28.665703 -0.71023315 -0.36634308 -0.60113364
-15.89716 -8.076849 27.3626 -0.6823104 -0.37024415 -0.63037437
-10.396244 -10.438612 23.478477 -0.57667935 -0.39989576 -0.71240747
46.053234 -32.607048 10.334314 -0.65851903 0.74196869 0.12583737
46.664082 -31.75927 8.6946096 -0.68350631 0.7143622 0.15001959
-11.307204 -11.465333 24.906679 -0.59740007 -0.4176487 -0.68460417
21.525021 -48.299732 -7.151021 -0.46821576 0.88289195 -0.03571986
45.225342 -33.036781 7.9117785 -0.66491359 0.73410046 0.13779113
18.278814 -25.313755 24.303572 -0.93054771 -0.067757584 0.35984701
19.438339 -48.906483 -1.1342313 -0.38200453 0.92094851 -0.076983564
-16.906748 -9.4878168 29.367399 -0.68968451 -0.38470978 -0.61346036
-16.009552 -50.535126 6.0806732 0.17218369 0.91333199 -0.36902231
43.158474 -22.975599 -27.397274 -0.8493526 0.42815682 0.30867758
-14.365212 -11.855691 28.10891 -0.66310388 -0.415068 -0.62290597
-16.294849 -12.140865 30.41675 -0.69310665 -0.41935462 -0.58629757
43.390583 -23.476768 -26.140045 -0.85126555 0.45516223 0.26110229
44.238029 -34.154922 9.0500574 -0.63582283 0.76377869 0.11122702
19.094435 -27.112154 26.99856 -0.41292688 -0.17158857 -0.89445442
-7.6389627 -14.48295 23.746283 -0.57633764 -0.4600457 -0.67542046
-13.550246 -14.481596 29.059629 -0.63318449 -0.46004632 -0.6224426
0.45587751 -17.885668 20.437355 -0.41662338 -0.48799253 -0.76699942
-1.6514072 -16.847723 20.813887 -0.4626171 -0.48543027 -0.74185091
-3.256516 -16.557838 21.943552 -0.51752949 -0.48725426 -0.70338225
-15.623857 -14.202892 31.173937 -0.68383175 -0.4510085 -0.57355505
41.98204 -25.748014 -26.452133 -0.84601325 0.46924698 0.2531181
36.065098 -34.740044 22.111082 -0.36717212 -0.24943726 -0.89608347
33.694923 -34.725143 23.011805 -0.34314105 -0.25970227 -0.90266776
-1.1135271 -18.753235 21.816191 -0.46723035 -0.51234412 -0.72055489
42.563828 -25.40114 -24.861197 -0.84434974 0.47692823 0.24415767
-7.0103722 -16.562168 24.707026 -0.55347532 -0.47499579 -0.68413746
25.371655 -46.057667 -12.360184 -0.56162035 0.82718718 -0.0185451
42.539101 -35.197334 8.0330687 -0.63118207 0.76597726 0.12201691
42.576164 -35.645077 9.7903175 -0.62260377 0.77579415 0.10250857
42.380554 -35.864082 12.116118 -0.54652506 0.8320393 0.094979085
19.407751 -29.920599 27.382412 -0.68317366 -0.20178071 -0.70182496
-2.9368527 -20.95233 24.855625 -0.48284575 -0.54596853 -0.68467391
-6.6292548 -18.562668 25.755812 -0.55833775 -0.51321483 -0.65182012
-4.3691158 -19.061003 24.357515 -0.51349372 -0.49003598 -0.7044068
25.50182 -46.053745 -2.353318 -0.4725185 0.88103801 -0.022326043
20.582191 -48.658428 -3.8427486 -0.43594891 0.89875132 -0.046847537
