# .PCD v0.7 - Point Cloud Data file format
VERSION 0.7
FIELDS x y z normal_x normal_y normal_z
SIZE 4 4 4 4 4 4
TYPE F F F F F F
COUNT 1 1 1 1 1 1
WIDTH 713
HEIGHT 1
VIEWPOINT 0 0 0 1 0 0 0
POINTS 713
DATA ascii
15.908222 12.583828 -137.21101 -0.74000156 -0.60174447 -0.3005017
14.830468 15.219791 -139.21588 -0.80808127 -0.52825403 -0.26067674
11.958274 18.652538 -142.17271 -0.4207339 -0.82506114 -0.37716991
-0.059873253 -23.24754 -72.476097 -0.27066833 -0.90145862 -0.33780333
16.431427 10.740746 -135.53114 -0.8424837 -0.45712212 -0.2850624
14.683159 13.329533 -135.83246 -0.66512662 -0.68166888 -0.304851
13.637173 16.335423 -139.42244 -0.5721007 -0.72157574 -0.3899093
12.732026 15.189252 -136.31732 -0.54530382 -0.75137979 -0.37158066
0.47908211 -26.966232 -61.517986 -0.27820784 -0.90884215 -0.31081569
15.71749 11.700757 -134.62323 -0.80775291 -0.52617908 -0.26583961
12.877637 16.11121 -137.81827 -0.46206981 -0.76033682 -0.45648596
12.078393 17.414236 -139.36169 -0.44616967 -0.80143505 -0.39828953
15.554232 10.592532 -132.77995 -0.78820783 -0.51628453 -0.33493078
15.433497 9.6671963 -130.26796 -0.77702552 -0.562406 -0.28272027
14.624055 10.950608 -131.78735 -0.70399672 -0.60657686 -0.36939567
14.692744 12.650628 -133.53763 -0.70114857 -0.60085899 -0.38387418
13.437011 13.361445 -133.03001 -0.56605345 -0.74683487 -0.34902894
11.446265 15.798229 -136.30997 -0.43060791 -0.80133003 -0.41526732
9.9333391 16.492203 -136.54626 -0.15534969 -0.87381339 -0.46077842
14.785555 9.4309998 -128.40129 -0.74329823 -0.5755111 -0.34102014
13.533475 11.825774 -131.11238 -0.63880283 -0.67461687 -0.36989602
12.594666 13.919435 -133.12962 -0.4964726 -0.77644891 -0.38812643
10.43928 15.756279 -135.12218 -0.29885992 -0.874008 -0.38313538
14.670906 10.651155 -130.50671 -0.7014901 -0.66782862 -0.24883004
12.625374 12.256043 -130.06429 -0.55677831 -0.76522434 -0.32315558
11.903518 12.986195 -131.04646 -0.45715359 -0.80757129 -0.3726114
11.650307 14.857885 -133.84077 -0.40894946 -0.84160864 -0.3527821
11.658126 13.789719 -131.86195 -0.46230683 -0.76429439 -0.44958472
5.3549638 -22.810402 -74.719574 0.10482495 -0.92558801 -0.3637287
14.836066 7.3699427 -126.30434 -0.85209584 -0.28680226 -0.43780953
13.969796 9.5182447 -127.20761 -0.66916656 -0.64141554 -0.37523606
10.377899 14.709494 -132.36066 -0.27903455 -0.86886448 -0.40891838
14.361787 8.7246666 -126.10686 -0.8319177 -0.42070952 -0.36182383
13.574991 10.975958 -128.54247 -0.64374256 -0.68324095 -0.34464085
14.049569 8.0926523 -124.56944 -0.71298236 -0.63792759 -0.29104024
11.925104 12.054888 -128.19684 -0.50630784 -0.77741343 -0.37320331
14.261322 7.6590557 -123.59377 -0.76187599 -0.63693756 -0.11770929
11.304709 12.30326 -127.78761 -0.35342729 -0.82841724 -0.43452743
12.77672 9.526144 -125.00613 -0.57919723 -0.72517848 -0.37235296
11.32271 11.060418 -126.26572 -0.49429232 -0.77386481 -0.39599037
13.951951 5.9505582 -120.388 -0.70160228 -0.63951176 -0.31429106
10.473063 11.298191 -125.83963 -0.39356884 -0.82865816 -0.39803183
13.454363 7.5833116 -122.04199 -0.67858726 -0.64536577 -0.35074538
10.482886 10.099047 -122.37862 -0.44603947 -0.82087904 -0.35666001
12.604882 8.4714947 -121.96713 -0.58733004 -0.72150928 -0.36669847
11.359773 9.5539827 -122.76842 -0.53243417 -0.7731427 -0.34462181
9.3643045 10.922346 -123.49947 -0.21011777 -0.8824712 -0.42082658
13.251577 4.9238062 -116.60882 -0.70712698 -0.63183355 -0.3174234
14.492614 4.6014619 -118.75026 -0.80465263 -0.52129298 -0.28423184
13.048933 6.5540161 -119.83892 -0.67898995 -0.64747316 -0.34605077
12.127827 7.0353498 -119.04962 -0.56250691 -0.79367024 -0.23167568
11.154483 8.7310896 -121.0675 -0.52737534 -0.75879836 -0.38223076
15.434746 -2.9702778 -109.24469 -0.68376851 -0.63749731 -0.35504618
14.16966 1.6523446 -113.27645 -0.79974455 -0.52039373 -0.2993311
11.390376 7.5829649 -118.91564 -0.57222581 -0.73289877 -0.36799058
9.7443886 9.5892897 -120.99686 -0.2359253 -0.88611728 -0.39891768
10.800093 8.7607689 -120.21203 -0.51142299 -0.77150446 -0.37845391
12.669861 6.3036065 -117.63942 -0.66334337 -0.6763221 -0.32025614
15.86778 -4.0826454 -107.5083 -0.37994385 -0.84338927 -0.37991747
15.248524 -2.1745906 -110.39501 -0.82199413 -0.49279001 -0.28545329
13.709355 3.7240777 -115.29692 -0.79329306 -0.51731008 -0.32105517
10.459951 7.5189662 -117.22573 -0.41045389 -0.82707226 -0.38402984
15.191315 -4.1312947 -106.35582 -0.16503027 -0.96426445 -0.20726568
15.261315 -3.8823171 -107.56988 -0.77471387 -0.5349704 -0.3370831
12.719563 2.9287741 -112.29208 -0.67122996 -0.62835515 -0.39321768
12.681547 4.5761619 -115.17781 -0.63197827 -0.66568011 -0.39682925
11.492805 5.1534986 -114.29469 -0.60152549 -0.68436557 -0.41208115
11.809399 6.6205263 -117.05719 -0.57946265 -0.72794074 -0.36650407
9.192625 7.4861465 -115.68055 -0.43864533 -0.81571478 -0.37709382
14.464628 -4.4965534 -104.46545 -0.78126776 -0.51846302 -0.34758699
11.901636 3.1348784 -112.00714 -0.3799704 -0.73923576 -0.55601531
12.070394 3.8778462 -112.61051 -0.60914707 -0.68761736 -0.39512309
10.537012 5.6094594 -113.93102 -0.44110826 -0.77205062 -0.45756036
10.993627 6.5870128 -115.64847 -0.48209742 -0.75700557 -0.44104943
1.8765637 -15.967814 -91.182549 -0.14593479 -0.90516841 -0.39921576
5.1968169 -16.60853 -90.401993 0.015661202 -0.92607313 -0.37701902
3.8744793 -17.434652 -88.14743 0.02317174 -0.93485391 -0.35427558
2.3520379 -17.407385 -87.995934 -0.19453885 -0.91818357 -0.34509936
0.5257082 -16.362223 -89.674561 -0.23999727 -0.89505702 -0.37586462
2.0535939 -18.03364 -86.345833 -0.13850786 -0.91097218 -0.38851675
1.4995427 -19.064817 -83.774055 -0.21888784 -0.90845269 -0.35609245
1.7356435 -20.937542 -78.869545 -0.18648341 -0.90686744 -0.37790921
2.3588467 -22.638474 -75.197807 -0.071264192 -0.92534804 -0.37236074
1.0405698 -22.620955 -74.371048 -0.26406199 -0.90105033 -0.34406316
-0.93268561 -21.145271 -76.897614 -0.31868517 -0.88070041 -0.35043767
0.49193898 -22.535149 -74.035583 -0.30435199 -0.87010229 -0.38767508
0.33400267 -21.304335 -77.219124 -0.26470298 -0.8963725 -0.35559621
-2.0586646 -40.869873 -6.8966975 -0.14140868 -0.97830021 -0.15143402
-0.75602537 -23.951864 -69.447266 -0.32946727 -0.88330877 -0.33349201
-1.5881014 -24.48457 -66.934944 -0.43643749 -0.84620011 -0.30572477
-0.058536794 -25.450775 -66.241707 -0.27766392 -0.90690732 -0.31689397
0.44251674 -26.277983 -63.97419 -0.22594312 -0.92990047 -0.29023239
-0.035260767 -28.508781 -56.377598 -0.32989284 -0.90397215 -0.2720387
-0.5483197 -30.315989 -50.244625 -0.26925224 -0.92388517 -0.27191824
0.21652684 -31.347794 -48.068832 -0.30322251 -0.91172463 -0.27715379
-0.58738905 -31.866467 -45.033031 -0.29178372 -0.91728997 -0.27100044
-0.94922572 -32.278706 -42.888027 -0.37680021 -0.88655549 -0.26840439
-1.4574831 -31.799215 -43.995567 -0.49075168 -0.83734363 -0.24087007
-1.4625925 -32.9692 -40.32362 -0.38086444 -0.88261157 -0.2755706
0.53622222 -33.844875 -39.28442 -0.20340343 -0.94245768 -0.26533103
0.080204308 -34.698841 -36.099354 -0.16911156 -0.95150667 -0.25697505
-1.7072661 -34.166351 -35.753998 -0.42993066 -0.86616772 -0.2547805
-0.47540554 -36.150387 -30.124691 -0.1375028 -0.95817763 -0.25097543
-1.3252568 -36.495293 -27.877142 -0.32083097 -0.91580564 -0.24159351
-1.7217975 -35.856346 -29.603199 -0.43582547 -0.87040246 -0.22903201
-0.83789635 -37.277126 -25.727888 -0.2623508 -0.93427038 -0.24147645
-0.95140213 -37.62949 -23.712587 -0.10801519 -0.97202229 -0.20857935
-2.3805199 -36.874672 -24.805109 -0.42913052 -0.87152469 -0.23725876
-1.9653698 -37.709255 -22.10276 -0.37147567 -0.90172637 -0.22112271
-2.8842552 -38.6217 -17.256578 -0.42311883 -0.88108003 -0.21134886
-2.7304895 -39.365231 -14.132112 -0.1859768 -0.96398711 -0.19010884
-3.5359533 -38.852085 -14.430807 -0.5032925 -0.83962137 -0.20428544
-4.4855351 -39.055973 -12.15584 -0.47523487 -0.85395658 -0.21192014
-3.861299 -40.038132 -8.4110765 -0.43510315 -0.8794812 -0.19286816
-2.660471 -41.302696 -1.5281396 -0.087959163 -0.99107349 -0.1001821
-6.7008142 -39.786354 -3.6420326 -0.47905427 -0.85460097 -0.20040998
-4.4341898 -40.912766 -2.1703019 -0.30224329 -0.9431175 -0.1384854
-6.0006108 -40.701115 -0.19435716 -0.29988441 -0.94003427 -0.16249605
-4.0910726 -41.55365 2.9061115 -0.16373926 -0.98516476 -0.051379655
-7.3145037 -40.636189 1.9064254 -0.34632838 -0.92944479 -0.12723659
-8.2229729 -40.66803 4.9603748 -0.33888292 -0.93393445 -0.11368728
-4.4753356 -41.594372 5.4051037 -0.16176131 -0.98514026 -0.057722166
8.6641817 -38.967312 24.88422 -0.025770219 -0.99940962 0.022721261
-11.851898 -39.268047 7.1606712 -0.42009774 -0.89380974 -0.1569141
-8.8229752 -40.639809 7.4636979 -0.31038517 -0.94928688 -0.050154626
-10.625949 -39.858829 7.3307962 -0.40952483 -0.90341985 -0.12697282
-10.407835 -40.221634 9.68431 -0.33260235 -0.94095016 -0.063153699
-12.77517 -39.251377 9.6295118 -0.37744576 -0.92014837 -0.10421938
12.055393 -39.299519 18.455858 -0.37507731 -0.92356277 -0.079678737
-7.2624907 -41.241459 11.532973 -0.24264465 -0.9699952 -0.015262631
-15.057749 -38.425373 9.5528326 -0.16166349 -0.97936368 -0.12129152
-10.681174 -40.235149 11.560399 -0.34101039 -0.93958688 -0.029809097
3.8224988 -40.029442 24.417149 0.183121 -0.97668988 0.11199847
-13.205445 -39.283554 13.521638 -0.32075161 -0.94706708 -0.013503672
-12.794579 -39.286995 11.851003 -0.3116509 -0.94744343 -0.072281472
-8.3615437 -40.843872 15.008145 -0.23663552 -0.97121733 0.027213503
-9.6039743 -40.591183 13.850019 -0.29755667 -0.95468414 0.006183391
-15.59535 -38.610218 10.933025 -0.020265363 -0.99656004 -0.080358721
10.447477 -39.216709 22.933865 -0.28433776 -0.95475787 -0.087117083
-11.141752 -40.095085 15.763224 -0.32629126 -0.94523174 0.0084172664
-15.464247 -38.686008 12.708023 -0.059184305 -0.99823755 -0.0043650796
-10.638566 -40.245483 17.337212 -0.28855786 -0.95745111 -0.0046679466
10.44162 -39.769318 25.820896 -0.50288314 -0.84082532 -0.20030303
10.58868 -40.37656 27.295446 -0.55732697 -0.78925705 -0.25779811
8.8359203 -39.035912 26.446657 -0.28149807 -0.94496858 -0.16671324
10.959887 -41.574703 29.939133 -0.58434623 -0.73996401 -0.33315563
9.1539392 -39.980328 29.236313 -0.49706522 -0.82510638 -0.2685622
5.5422397 -39.4049 26.107758 0.20583737 -0.9703849 0.12642828
6.988956 -39.04657 27.762264 -0.18578275 -0.9768796 -0.10578768
5.5276537 -39.10918 27.818953 0.16600025 -0.98545969 0.036239576
10.056006 -42.055481 32.062302 -0.59285986 -0.72447044 -0.35165295
8.950489 -40.808296 31.620129 -0.50443625 -0.76564503 -0.39916384
8.1775866 -39.490181 29.912794 -0.3091706 -0.91463876 -0.26047954
6.1632013 -39.040375 29.485588 -0.08924368 -0.9598493 -0.26594162
-11.921493 -39.485336 22.975166 -0.24494293 -0.96443146 0.099371955
-7.7363739 -40.274307 24.082933 -0.14524992 -0.9851405 0.091655441
-13.199617 -38.984348 24.124006 -0.15145633 -0.9867124 0.058818813
3.2269337 -39.819298 26.686117 0.16946843 -0.98231953 0.079553902
12.246741 -39.151855 14.50418 -0.34264761 -0.93718064 -0.065459982
-5.7774839 -40.277542 26.91769 -0.071428895 -0.99058115 0.11682013
-8.845437 -39.957729 24.599857 -0.21774592 -0.97235054 0.084386297
8.0793467 -39.528873 14.603666 0.35167792 -0.93611991 -0.0014350186
11.335202 27.05295 -158.36467 -0.22472547 -0.85205507 -0.47275862
1.2006589 -39.845139 27.876728 0.11277855 -0.99323916 0.027511775
-0.056537356 -40.137764 28.648624 0.039459534 -0.99609715 0.078951672
-13.463717 -39.125835 15.435943 -0.26798511 -0.96335346 -0.011579365
10.983104 23.238947 -151.1244 -0.14671262 -0.9054032 -0.39839739
11.018479 22.390379 -148.80936 -0.29576325 -0.87828791 -0.37567887
10.862731 21.850914 -147.47525 -0.19912994 -0.85842061 -0.47271702
9.8919525 21.331875 -146.41264 -0.085963666 -0.89560765 -0.43645993
7.6111875 21.278149 -146.26326 0.087841667 -0.90998739 -0.40522447
11.079641 20.602232 -144.99178 -0.3873803 -0.85158402 -0.35318705
11.610486 19.561361 -144.02859 -0.41408229 -0.80291539 -0.42879233
10.582745 20.484982 -144.22787 -0.10943633 -0.91310394 -0.39276558
9.9045925 20.148954 -143.36528 -0.11652339 -0.87917346 -0.46203497
10.627298 18.735609 -140.91035 -0.17395714 -0.88778085 -0.42612693
7.6332326 19.388491 -141.98602 0.057055425 -0.91046751 -0.40962604
9.6740322 18.396786 -140.00035 -0.11313827 -0.9151842 -0.38683015
8.0064163 18.6703 -140.28577 0.11189853 -0.92704868 -0.35785389
8.6897821 18.079798 -138.7265 -0.064607881 -0.88763082 -0.45600152
7.0344753 18.061377 -138.96402 0.1605483 -0.89117485 -0.42430133
10.807886 17.18416 -137.77608 -0.26575008 -0.84684271 -0.46068907
8.3732634 16.451239 -135.75349 -0.078792632 -0.90224522 -0.42396376
9.4512119 15.811419 -134.48909 -0.16096792 -0.91645586 -0.36633044
7.1742449 15.981035 -134.39128 0.11684086 -0.91589391 -0.38404
8.5205059 15.109254 -132.4259 -0.12618157 -0.90709645 -0.40156469
7.3548675 14.680206 -131.61482 0.089376062 -0.92782933 -0.36213887
9.501914 13.81402 -129.74898 -0.21672216 -0.92462409 -0.31321219
6.5895305 14.038793 -130.15691 0.28230941 -0.90552521 -0.316742
9.0233679 13.602773 -128.64107 -0.26731083 -0.86683166 -0.42088926
7.5277934 14.40995 -130.20804 0.079028085 -0.91353428 -0.39901078
3.8570912 -39.915798 29.058071 0.14413482 -0.98175806 -0.12400128
8.8618488 12.320908 -126.26736 -0.17158529 -0.88779515 -0.42705765
-4.208497 -40.074348 27.935589 -0.018879339 -0.98711002 0.15892579
6.6543465 11.445834 -123.67474 0.067344785 -0.90835339 -0.41274554
-8.2796507 -39.950615 27.828781 -0.17362998 -0.98045415 0.092533119
-10.465309 -39.549068 25.691702 -0.24143289 -0.96627253 0.089596555
-12.091598 -38.991108 26.618782 -0.16703905 -0.98380142 0.065059148
10.218774 -43.260826 34.436581 -0.6051864 -0.70411992 -0.37143591
3.020668 -15.127446 -93.784927 -0.067360088 -0.93371916 -0.35161224
4.1523376 -40.812527 15.409234 0.19815934 -0.97953886 0.035163581
3.0663731 -19.853203 -82.224854 -0.026970146 -0.93000025 -0.366568
3.705792 -21.264149 -78.806358 -0.0044575403 -0.92578363 -0.37802762
5.7758732 -21.854017 -76.964249 0.14991541 -0.93074638 -0.33352157
5.8293514 -22.092783 -75.882774 0.13698988 -0.9203074 -0.36642614
1.9297953 -23.811613 -71.764496 -0.10248465 -0.94894725 -0.2983222
2.3223035 -23.363041 -73.353661 -0.091285236 -0.93035352 -0.35511869
3.7970679 -23.721159 -72.291603 0.049967024 -0.953587 -0.29694301
4.1778274 -24.713833 -69.336456 0.10307018 -0.93832815 -0.33002537
3.261102 -26.155819 -65.208549 0.061533816 -0.96141583 -0.26812899
2.1065934 -25.913948 -66.081566 -0.11029875 -0.93771547 -0.32942984
2.358139 -27.966864 -59.632118 -0.070459314 -0.95176435 -0.29863036
1.717446 -27.243416 -62.056232 -0.11164306 -0.9418084 -0.31706899
0.51450038 -28.658319 -56.940205 -0.22251761 -0.93228203 -0.28519487
2.6523693 -28.536177 -57.876049 0.043887272 -0.95636207 -0.28886926
2.3428752 -29.185217 -55.794987 -0.046119563 -0.94729125 -0.31703663
3.4470892 -30.745007 -49.732635 0.254262 -0.93403524 -0.25085637
1.4478954 -30.823471 -50.009392 -0.063936062 -0.94564849 -0.31884342
2.8101947 -31.879524 -46.361534 0.22685336 -0.94750392 -0.22533037
1.3895646 -31.908119 -47.041901 0.020631801 -0.9571467 -0.28886738
4.637485 -31.546009 -45.015049 0.46922123 -0.86309803 -0.18679714
1.025129 -32.117481 -45.545547 -0.074831024 -0.96801245 -0.23948345
0.83983153 -33.285332 -41.558369 -0.059584122 -0.95749807 -0.28221822
0.38673025 -36.764042 -27.959658 0.03791023 -0.97122627 -0.23512186
-0.74499929 -38.244427 -21.460154 -0.1265571 -0.96038651 -0.24827611
0.96930999 -38.401745 -20.360365 0.27663025 -0.9426198 -0.18693228
-0.72156513 -38.916718 -18.821791 -0.044043757 -0.98187995 -0.18431501
-1.981478 -38.639774 -18.38722 -0.22508532 -0.95430946 -0.1965452
-0.49229002 -39.979061 -12.652369 0.024050647 -0.984106 -0.17594601
-1.6097661 -40.298977 -10.341403 -0.11672142 -0.97966909 -0.16317049
-3.0762527 -40.101826 -9.3793306 -0.17722626 -0.96971637 -0.16805039
-0.9960627 -40.614281 -7.6170735 -0.012120393 -0.98847598 -0.15089178
-1.2784638 -41.04034 -3.8822348 0.015182927 -0.99281675 -0.11867833
-4.3804665 -40.31028 -6.1335273 -0.35449681 -0.91861475 -0.17458218
-3.4487252 -40.868771 -4.2452464 -0.20060529 -0.97185552 -0.12350895
-2.2831759 -41.332115 -2.6976998 -0.034811169 -0.99376154 -0.10595407
1.2618167 -41.088654 -1.8031553 0.17029835 -0.97965068 -0.10622188
-1.0440167 -41.583122 0.21702634 0.063968405 -0.99484032 -0.078744017
-4.3615317 -41.420349 1.2861153 -0.23483559 -0.96452671 -0.12058353
-3.0218556 -41.513283 0.56224722 -0.059202 -0.99431896 -0.088459171
-0.96389246 -41.777145 3.8712828 0.039869871 -0.99726063 -0.062301785
-0.55832624 -41.739174 7.2279525 0.021407228 -0.99953401 -0.021759702
-1.8687185 -41.764397 5.2274036 -0.032749012 -0.99941683 -0.0096702352
-3.9373155 -41.687416 6.8389063 -0.088021658 -0.99605066 -0.011635168
0.64103538 -41.699089 8.3320608 0.1046275 -0.9944607 -0.010059467
-6.4560938 -41.316753 6.5259686 -0.22304797 -0.97368348 -0.046799004
1.8807616 -41.504551 7.1129208 0.18737583 -0.98124957 -0.045161899
-3.9096808 -41.742237 8.0618658 -0.083967432 -0.99639189 -0.012355257
-6.7034106 -41.261715 8.6505785 -0.19669895 -0.98032528 -0.016492987
-5.0046706 -41.552589 10.714878 -0.10652237 -0.99426407 0.0095900716
15.68634 20.868574 -150.84077 -0.67729491 -0.58706164 -0.44343013
15.708806 18.292528 -147.35004 -0.70772123 -0.62065804 -0.33751202
15.200788 14.624454 -139.78105 -0.66019756 -0.66748577 -0.34438634
14.876449 14.673528 -140.47635 -0.7255801 -0.61648172 -0.30575141
3.3502803 -25.544592 -67.168022 -0.011303524 -0.94322562 -0.3319602
-2.4061704 -20.25169 -77.372681 -0.45349306 -0.82198775 -0.34449971
20.107548 45.734043 -200.88849 -0.74388057 -0.54057598 -0.39296216
10.589825 -94.25547 72.461029 -0.6870591 -0.21893795 -0.69283187
9.4069071 -95.506828 74.093536 -0.64562947 -0.23595543 -0.72628331
5.6674504 -97.423195 76.764046 -0.37811074 -0.19403048 -0.90519863
5.9979053 -94.413437 76.067673 -0.37084857 -0.24953529 -0.89454097
7.4838295 -94.501511 75.39257 -0.54156178 -0.23384678 -0.80748159
5.7556601 -92.395226 75.635674 -0.41340756 -0.28156951 -0.86591727
4.0921412 -92.470924 76.312286 -0.31456065 -0.26727438 -0.91083258
19.932417 -75.969467 53.20211 -0.69627935 -0.39838442 -0.5970636
4.8966084 -88.199799 74.630371 -0.38488045 -0.36239666 -0.84884381
5.1894932 -86.195938 73.570816 -0.43787375 -0.32290697 -0.8390457
9.0567532 -82.964226 69.239105 -0.63404918 -0.35386252 -0.68757761
7.474402 -81.412842 69.965813 -0.56256539 -0.38460967 -0.73184401
7.5716681 -83.54158 70.980049 -0.55104119 -0.33765119 -0.76311553
5.4606633 -84.555847 72.819542 -0.49302751 -0.32539952 -0.80686992
9.537837 -80.582787 67.750084 -0.60301417 -0.36733085 -0.70812565
3.5735497 -84.841972 73.854744 -0.28041512 -0.32652545 -0.90263414
4.5533371 -82.38121 72.37664 -0.42081603 -0.37848106 -0.8244186
8.3821535 -78.909698 67.899185 -0.57416576 -0.36267215 -0.73403162
10.348369 -79.018814 66.370613 -0.60221201 -0.34063235 -0.72201824
5.3862548 -80.732895 71.042259 -0.46809554 -0.40935132 -0.78314632
5.059577 -78.727448 70.170967 -0.47031575 -0.41421846 -0.77924716
11.22638 -75.69841 63.749859 -0.64600885 -0.3878417 -0.65745831
1.213962 -82.040428 73.15963 -0.16525193 -0.39711386 -0.90276927
6.6521268 -77.776611 68.821274 -0.51410931 -0.38194677 -0.76798975
8.453187 -73.383759 64.971626 -0.5843761 -0.42911518 -0.68874133
1.8181473 -79.389282 71.685211 -0.26280737 -0.43967897 -0.85884494
2.9725459 -79.237198 71.457664 -0.32243058 -0.46500209 -0.82450688
7.4780769 -75.156013 66.891602 -0.49961394 -0.41017291 -0.76298374
8.2703485 -76.930725 66.948959 -0.59353065 -0.35267934 -0.72342139
9.6582298 -75.884827 65.497581 -0.59082997 -0.40066433 -0.70027715
5.4083996 -77.074913 69.001678 -0.3911868 -0.44741064 -0.80423671
5.5476098 -76.000687 68.226456 -0.4408212 -0.43219006 -0.78669459
10.059555 -72.478706 63.050251 -0.58328611 -0.41559991 -0.69789255
10.257498 -69.700035 61.208576 -0.57211268 -0.43188006 -0.69725651
3.4200473 -77.682083 70.283554 -0.33444726 -0.48505953 -0.80799896
3.9370759 -75.614937 69.083115 -0.39308703 -0.36809933 -0.84260631
4.6327605 -73.205635 67.30899 -0.43618971 -0.4299736 -0.79048169
6.5525131 -72.78463 66.080116 -0.47838694 -0.50612587 -0.71762288
10.688848 -68.551804 59.855755 -0.58312225 -0.48318264 -0.65307194
20.425528 -54.963539 32.658607 -0.85836661 -0.39987165 -0.32141775
8.2332439 -70.344948 62.997864 -0.51491779 -0.47331831 -0.71472335
4.9059176 -71.52356 66.187653 -0.4595516 -0.51549596 -0.72324014
6.471673 -71.441376 64.817429 -0.4674724 -0.50448883 -0.72592056
12.359567 -67.712151 57.870308 -0.63210785 -0.44542679 -0.63406205
5.5982833 -70.786232 65.001381 -0.54658037 -0.44074547 -0.71203458
7.9375834 -68.877258 62.472687 -0.53948301 -0.39681506 -0.74262774
9.9592152 -67.974022 60.305119 -0.60737848 -0.44242674 -0.65981048
9.5176277 -65.899536 59.070011 -0.60982585 -0.46369693 -0.64272666
11.149985 -66.367027 58.063866 -0.60017121 -0.45829916 -0.65555817
8.5680113 -66.948898 60.980911 -0.53687024 -0.46879745 -0.70142668
10.268359 -63.489159 56.833256 -0.5962556 -0.46012241 -0.65784991
18.790173 -47.33744 24.244179 -0.76271099 -0.56198806 -0.32006466
20.0093 -48.483345 23.835155 -0.63275725 -0.62517101 -0.45692387
20.06015 -47.055065 22.001627 -0.52714491 -0.66323251 -0.53126353
12.485347 -63.319241 54.487583 -0.64189333 -0.48716867 -0.59214836
13.018689 -60.19994 51.562332 -0.66130459 -0.47519919 -0.58039802
19.284676 45.152592 -197.68181 -0.79083365 -0.50393534 -0.34732032
8.658824 -64.579887 59.08828 -0.55644518 -0.50099158 -0.66285461
9.3273506 -63.151081 57.458824 -0.55881572 -0.49223557 -0.66740471
10.720178 -62.229652 55.348717 -0.60714215 -0.49375564 -0.62256235
19.027153 -48.343575 24.880877 -0.80975854 -0.43788695 -0.39057153
-0.62230355 -23.155413 -71.531975 -0.31646571 -0.90331322 -0.2896114
-0.38800159 -17.703571 -85.715157 -0.31840515 -0.87330484 -0.36872303
9.4975147 -61.962696 56.407238 -0.57894671 -0.50750864 -0.63816583
10.388032 -60.303429 54.38945 -0.56967485 -0.534078 -0.62468493
12.280288 -58.219181 50.540981 -0.63659304 -0.56339008 -0.52663165
12.757606 -58.704041 50.600323 -0.69177693 -0.51377904 -0.50742066
18.6327 -45.940052 22.026022 -0.70361108 -0.65590662 -0.27334574
-1.8571882 -22.37821 -72.600197 -0.38856664 -0.85870135 -0.33413747
12.58503 -57.201195 49.085529 -0.67346954 -0.50959128 -0.53549564
14.498959 -57.614002 47.073734 -0.7131536 -0.48939037 -0.50190544
15.949658 6.8690386 -127.7975 -0.84474391 -0.39156011 -0.36481288
11.242071 -60.05793 53.146484 -0.60674912 -0.50180095 -0.61648297
11.227558 -58.054619 51.639435 -0.5926196 -0.52482241 -0.61103469
11.368264 -56.644756 50.07674 -0.60080338 -0.57959521 -0.55054945
13.059976 -55.364414 47.01556 -0.67784882 -0.5319376 -0.50750715
15.167799 8.5481253 -127.67095 -0.81146234 -0.45879304 -0.36199135
10.355418 -56.746597 51.518559 -0.59606028 -0.53475028 -0.59896106
10.047535 -55.80632 50.339779 -0.6054123 -0.5583849 -0.56717044
11.531283 -55.539196 48.671894 -0.6219433 -0.53174162 -0.57483679
11.170834 -53.461086 47.257221 -0.64120764 -0.57289851 -0.51052928
11.924396 -53.556099 46.349804 -0.63373297 -0.58637667 -0.50452435
12.793734 -52.336998 43.576859 -0.68682057 -0.55161905 -0.47328001
19.147497 24.237783 -164.23454 -0.7294547 -0.54440647 -0.41414666
10.626034 -54.207237 48.661907 -0.60185808 -0.52228785 -0.6041376
10.915202 -52.164684 45.814255 -0.58104461 -0.63513815 -0.50890732
8.6819983 -53.029987 49.386143 -0.49781975 -0.62370235 -0.60263664
9.6102104 -52.523811 47.922001 -0.50311083 -0.6961844 -0.51206124
12.509044 -50.380901 41.903477 -0.68820071 -0.56653416 -0.4532316
12.515176 -49.628212 40.678219 -0.69622743 -0.55952913 -0.44966042
13.031517 -46.638424 35.441132 -0.67334974 -0.61686665 -0.40752384
14.234761 -45.984638 32.5709 -0.69366354 -0.59872651 -0.40044674
7.1001611 -53.697796 50.906254 -0.45293909 -0.68462533 -0.5710817
10.248924 -50.230209 44.176544 -0.51197642 -0.62291729 -0.59148479
11.511767 -50.672104 43.591007 -0.60793585 -0.57981586 -0.54242748
11.274953 -47.313354 39.866173 -0.57303941 -0.69439697 -0.43524563
12.703918 -47.932968 38.600941 -0.70429182 -0.58367711 -0.40409657
13.037792 -47.701984 37.239697 -0.70357567 -0.60875219 -0.3666088
7.7057076 -51.866951 47.943218 -0.2461347 -0.82920814 -0.50182819
8.5024281 -51.716431 47.30373 -0.35576048 -0.76561147 -0.53597915
11.855149 -46.667042 37.39241 -0.61704707 -0.68833953 -0.38136804
9.3499975 -51.048615 45.858707 -0.49542388 -0.66700417 -0.55647159
8.5026083 -49.78046 45.311413 -0.51983887 -0.60684288 -0.60125649
10.715478 -48.647427 42.159603 -0.59955251 -0.61791331 -0.50864518
12.047935 -45.74522 35.693359 -0.66376716 -0.62229246 -0.41492799
11.233023 -43.331467 32.721909 -0.57944572 -0.72083896 -0.38030741
12.600739 -44.801285 33.510109 -0.63462782 -0.65478301 -0.41049588
-7.3301544 -35.544647 -16.431915 -0.73112065 -0.63155574 -0.2580696
-6.1712809 -36.258682 -17.275625 -0.69693482 -0.68364376 -0.21659446
10.599321 50.176163 -198.29994 0.29952389 -0.89245391 -0.33735949
-25.228006 -95.640877 69.139656 0.76497066 -0.27638122 -0.58175021
9.4755621 -48.844608 43.563866 -0.53076369 -0.61169857 -0.58661288
9.1210537 -47.619926 42.357277 -0.49816465 -0.66627467 -0.55489641
10.149972 -44.933678 36.911301 -0.49572852 -0.73779327 -0.45816422
11.290393 -45.001701 35.855198 -0.59190184 -0.68382239 -0.42666036
-7.3700809 -34.475849 -17.724342 -0.78730375 -0.57317454 -0.22720881
-7.6881104 -33.126785 -21.828762 -0.78114736 -0.59353036 -0.19372785
-4.2633305 4.2000208 -126.82291 -0.27249354 -0.85221452 -0.44662932
9.8407564 -46.781651 40.758976 -0.51883733 -0.72444671 -0.45385531
8.9413919 -45.74567 39.049122 -0.3986384 -0.81379044 -0.42288595
-8.4719496 -33.233654 -17.713266 -0.8055318 -0.52838558 -0.26819229
-7.1840262 -34.304966 -20.277695 -0.77289683 -0.61117297 -0.17058112
11.769085 -21.287697 -70.035744 0.66976899 -0.72576499 -0.15708174
-9.0310974 -33.87257 -14.56217 -0.83551669 -0.50967294 -0.20529363
-8.4953995 -32.189465 -19.784281 -0.81643891 -0.55559278 -0.15730226
9.6732349 50.24765 -199.31128 0.39707354 -0.82768363 -0.39657584
-8.3245716 -31.770693 -22.383835 -0.82389301 -0.51182401 -0.24338554
-9.1159306 -30.993887 -21.391567 -0.80636352 -0.56942773 -0.15978062
-9.5216608 -33.046654 -13.642046 -0.91690379 -0.36516187 -0.16107212
-9.3491402 -32.221191 -16.14179 -0.88779753 -0.41631603 -0.19620521
-9.1571703 -31.900236 -18.319706 -0.79992485 -0.56545848 -0.20093997
18.096649 47.362171 -198.57973 -0.6904552 -0.57501024 -0.43890187
19.604149 47.960846 -202.94472 -0.71837842 -0.45206964 -0.52873951
19.164209 46.83049 -199.98802 -0.80168265 -0.48868859 -0.34422153
18.78738 49.79781 -203.0798 -0.61500072 -0.41596845 -0.66988385
11.699548 -71.38134 60.975967 -0.63447833 -0.39126581 -0.66659456
14.277642 -48.624283 36.427914 -0.69795406 -0.59225172 -0.40261412
13.18168 -44.437241 32.022228 -0.6242249 -0.69277459 -0.36111864
-1.8091112 -23.339581 -69.470802 -0.43471724 -0.85488021 -0.28319764
16.75634 -42.94883 17.903494 -0.6781562 -0.71965444 -0.14900233
15.973145 51.17255 -200.95131 -0.46245024 -0.70168006 -0.54201925
8.6188393 -102.63413 77.098877 -0.052745454 -0.46703506 -0.88266426
7.4504981 -102.23647 77.324295 -0.43356889 -0.10052931 -0.89549536
9.0551682 -101.02544 75.883041 -0.53981566 -0.24873942 -0.80419379
2.7638998 -102.70509 78.785835 -0.11906257 -0.10836071 -0.98695588
2.8335264 -100.96635 78.475677 -0.16307825 -0.14670879 -0.97564441
4.8913445 -102.13803 78.130051 -0.28832954 -0.096579365 -0.95264822
6.4913564 -101.15546 77.494118 -0.38464266 -0.1924241 -0.90278625
7.9966383 -101.56075 76.568108 -0.4437319 -0.21255988 -0.87058616
-1.2160226 -101.24982 78.987823 -0.064649165 -0.13279516 -0.98903286
4.0566297 -99.638557 78.041519 -0.28614968 -0.17857756 -0.94139707
-0.35271764 -100.24393 78.722488 -0.065700494 -0.13264412 -0.98898381
8.5548973 -97.97216 75.773361 -0.54902995 -0.1972847 -0.81218529
-3.7067835 -99.633263 78.726768 0.029886153 -0.1702453 -0.98494846
1.3391471 -98.804726 78.359329 -0.10353868 -0.16522272 -0.98080641
2.6159658 -98.029343 78.035057 -0.16650884 -0.16206664 -0.97263002
4.812386 -96.99752 77.243591 -0.34644508 -0.15870324 -0.92454815
6.722898 -97.887527 76.544922 -0.43434569 -0.20680174 -0.87668514
8.7132158 -96.810226 75.029877 -0.57960367 -0.23185857 -0.78121769
6.3845859 -96.024132 76.39418 -0.4644177 -0.19530046 -0.86381364
-2.1356959 -95.591705 77.904617 -0.031528521 -0.23616473 -0.97120142
-1.1429474 -96.570724 78.148026 -0.052408889 -0.2033857 -0.97769505
0.9066366 -95.701958 77.928108 -0.078173488 -0.21422926 -0.97365022
-0.50501251 -94.744148 77.501045 -0.0309684 -0.25526926 -0.96637398
1.8665367 -94.574585 77.48481 -0.092124723 -0.26627222 -0.95948529
3.2761059 -95.832626 77.541481 -0.28825104 -0.22180526 -0.93151152
-2.2020142 -94.555344 77.705231 -0.0083608739 -0.26836157 -0.96328193
0.69794357 -93.703445 77.346252 -0.076638602 -0.22678873 -0.97092402
6.7079287 -90.911011 74.567986 -0.55316007 -0.3028959 -0.77605921
-5.3177423 -93.303986 77.268333 -0.03403417 -0.26213101 -0.96443188
-1.4137467 -92.006973 77.037331 -0.0032156322 -0.24660304 -0.96911126
2.8825772 -93.608009 77.045631 -0.19902734 -0.27861017 -0.93955547
5.1804123 -90.812408 75.302353 -0.37694949 -0.27558014 -0.8842876
-4.8703232 -92.505341 77.119804 -0.081697918 -0.19258143 -0.9778741
3.1839941 -89.185524 75.657097 -0.25134575 -0.30839449 -0.91745192
6.1695962 -89.958412 74.713287 -0.49561265 -0.31246415 -0.81039149
8.8260784 -88.558899 71.998352 -0.58574152 -0.27410829 -0.76273948
16.90242 -84.967468 61.595531 -0.70909667 -0.3627238 -0.60465968
1.4213408 -91.572983 76.702835 -0.12405784 -0.30170491 -0.94529563
7.8194003 -88.745377 72.746796 -0.5962227 -0.3024514 -0.74366772
-4.6945629 -91.202972 76.802498 -0.029713636 -0.22193259 -0.97460914
1.5982237 -90.134514 76.021561 -0.10375707 -0.34093398 -0.93434387
15.605068 -84.083046 62.595043 -0.80372602 -0.22904393 -0.54914784
16.565178 -83.827309 61.216286 -0.73926711 -0.29859629 -0.60359287
17.695139 -83.102226 59.747768 -0.7027573 -0.29005861 -0.64961386
-3.1434271 -89.818756 76.437584 -0.040104777 -0.27544892 -0.96047878
-0.18052015 -89.260513 76.058083 -0.12819457 -0.29045641 -0.94826216
2.3015847 -88.14386 75.353828 -0.16880739 -0.37351856 -0.91213381
6.9275203 -88.574852 73.371132 -0.55905068 -0.31176916 -0.76828521
16.099607 -82.500313 61.513721 -0.82749689 -0.22701684 -0.51352918
15.985423 -81.059418 60.645481 -0.74966794 -0.27046829 -0.60402387
16.799805 -81.045174 60.207436 -0.75250709 -0.27905804 -0.59653986
18.305771 -80.886093 57.864464 -0.57545692 -0.43395585 -0.69320399
19.088255 -80.024788 56.719524 -0.57736588 -0.53766096 -0.61446673
-5.2493873 -88.71608 76.244926 -0.0082382504 -0.3221322 -0.94665885
-1.7436305 -88.752594 76.187164 -0.062776081 -0.28955799 -0.95509958
1.6372845 -87.559776 75.052589 -0.20261617 -0.43524355 -0.87721699
3.6035304 -86.741173 74.357147 -0.25147182 -0.32668385 -0.9110651
16.177935 -79.636749 60.04052 -0.75049955 -0.25446284 -0.60991728
17.542511 -80.899086 58.606285 -0.79663002 -0.3170324 -0.51465631
17.860437 -79.72065 57.354687 -0.76757121 -0.27218252 -0.58030254
19.210152 -77.8284 54.553463 -0.71649194 -0.30748788 -0.62617123
0.01479941 -86.964012 75.296623 -0.17289244 -0.32003358 -0.93149698
16.971209 -78.767494 58.582401 -0.82713157 -0.22626333 -0.5144496
-2.1295652 -86.84832 75.507988 -0.071830638 -0.31021535 -0.94794875
-1.2170595 -85.081749 74.848938 -0.13053745 -0.33664274 -0.93254048
18.411947 -78.281113 55.612926 -0.79379278 -0.29903623 -0.5295946
18.304876 -79.262611 56.921642 -0.72210318 -0.38644382 -0.57378399
2.4556241 -83.453575 73.544815 -0.22254993 -0.3622435 -0.90512502
18.516375 -76.573738 55.212597 -0.82483572 -0.20650682 -0.52630883
20.527411 -74.652603 51.165524 -0.59481025 -0.5353052 -0.59970754
1.2123243 -85.093407 74.329529 -0.1810514 -0.32917997 -0.92674756
18.419741 -74.593796 54.153927 -0.79597938 -0.30690968 -0.52175021
-0.42455027 -83.234375 74.090599 -0.13846686 -0.37382233 -0.91710621
19.801302 -73.384377 50.531078 -0.73465091 -0.38840076 -0.55626696
20.304789 -72.318779 49.71262 -0.75005108 -0.33902639 -0.56787717
-2.1766248 -82.891464 74.010139 -0.058276538 -0.41108981 -0.9097302
21.005371 -71.820953 48.548138 -0.67167437 -0.45605683 -0.58383703
-2.0342543 -80.400276 72.985603 -0.080137886 -0.43402958 -0.89732724
-2.1279564 -81.303146 73.251488 -0.019275077 -0.3793408 -0.92505622
19.267265 -71.939308 50.935276 -0.84482861 -0.25059783 -0.47272119
-3.8721271 -81.410667 73.414581 0.0044664047 -0.40431893 -0.91460711
0.10825186 -79.654541 72.388168 -0.15955389 -0.39672571 -0.90396416
20.388716 -70.288231 48.014713 -0.83054292 -0.34441453 -0.43769532
20.509958 -68.969849 46.605614 -0.77380604 -0.33720151 -0.53620821
-5.203887 -79.546692 72.660034 0.026696 -0.37384662 -0.92710626
0.63874793 -78.761078 72.090927 -0.21477246 -0.43153444 -0.87615681
1.4421694 -77.853439 71.04615 -0.2504527 -0.50115967 -0.82831901
-3.1628699 -79.388451 72.291748 -0.065465108 -0.42857054 -0.90113354
2.3884137 -76.538155 70.076653 -0.30238125 -0.39955762 -0.86540127
-1.1553307 -79.088928 72.148209 -0.037551481 -0.41731834 -0.9079842
-2.4914923 -77.15947 71.315376 -0.078563355 -0.42790222 -0.9004041
-0.49350077 -78.203148 71.793213 -0.09502811 -0.51560175 -0.85154235
-4.9268484 -77.975273 72.042435 -0.05105599 -0.41063452 -0.91036946
-5.5315676 -76.171944 71.113281 -0.049082585 -0.43280181 -0.90015197
-0.30177289 -76.765396 70.846436 -0.19277741 -0.41345224 -0.88988429
-0.7193079 -75.72496 70.653641 -0.133488 -0.41031626 -0.90212053
1.2328571 -75.516449 70.052681 -0.25980592 -0.39719504 -0.88019139
3.8195169 -74.260674 68.577721 -0.38435319 -0.45310232 -0.80434501
14.305718 51.281109 -200.06906 -0.20145325 -0.7808103 -0.59139812
0.02580867 -74.532623 69.750298 -0.18729177 -0.4127346 -0.89138758
-2.5229137 -75.119186 70.444176 -0.052287523 -0.42360842 -0.90433508
-0.65826815 -73.059753 69.463295 -0.14563967 -0.54282546 -0.82712126
4.1218472 -71.410667 66.820702 -0.32787353 -0.53355902 -0.7796241
1.2339799 -72.739784 68.647842 -0.26948154 -0.49259266 -0.8274855
3.2245042 -72.101364 67.290215 -0.31865084 -0.53507024 -0.78240752
3.5141001 -69.315971 65.117439 -0.36277241 -0.50413698 -0.78373605
-3.4039128 -73.263214 69.315605 0.024336241 -0.46978414 -0.88244587
-1.6508853 -73.752846 69.812408 0.012779888 -0.44244403 -0.89670509
-2.9268203 -71.079597 68.107086 -0.036972735 -0.52962685 -0.84742457
0.021285107 -71.144974 67.683838 -0.15599731 -0.58442479 -0.79631174
1.3878109 -71.287903 67.656357 -0.29077324 -0.55603474 -0.77863735
5.2037311 -67.218315 63.297592 -0.44766089 -0.44062826 -0.77810442
-4.915164 -71.768318 68.649445 -0.0040865862 -0.4962171 -0.8681888
2.8813241 -68.694183 65.213638 -0.32280019 -0.47995707 -0.81574577
5.6071863 -69.000954 64.156952 -0.44916061 -0.46590891 -0.7623539
-2.2626481 -69.681625 67.318802 -0.16385031 -0.52869743 -0.83284581
0.79407078 -69.66394 66.408096 -0.1983809 -0.54163581 -0.8168695
1.0987692 -68.008911 65.506088 -0.2164741 -0.44758463 -0.86764449
5.7678485 -65.863106 62.087215 -0.52545655 -0.44945565 -0.7224161
-5.8963385 -68.536446 66.582855 0.070155583 -0.50313348 -0.86135644
-3.7753208 -70.107651 67.625572 0.011826228 -0.47481909 -0.88000393
7.1828218 -66.496788 61.399517 -0.47664332 -0.47565329 -0.73930037
-6.048996 -69.617424 67.309258 0.064987689 -0.51793051 -0.85295057
-4.0817599 -69.031059 67.057037 -0.030405324 -0.5596357 -0.82818079
-1.5198289 -67.76152 65.815308 -0.13824394 -0.5182054 -0.8440094
1.3991811 -66.490669 64.570129 -0.30158931 -0.5290367 -0.79319859
3.4468565 -66.40448 63.815502 -0.35195729 -0.47913879 -0.8040846
-4.0258317 -67.213905 65.708412 -0.029327519 -0.5603866 -0.82771176
2.3187454 -65.15461 63.275558 -0.2925877 -0.54368299 -0.78663921
4.7317023 -64.864204 62.166641 -0.39567375 -0.57263511 -0.71800512
6.9855065 -63.088562 59.003349 -0.51031542 -0.52592593 -0.68042642
-7.3815341 -66.719963 65.442329 0.065670177 -0.56698221 -0.82110816
-1.7843217 -66.063194 64.992302 -0.070990242 -0.53911746 -0.83923346
0.35702506 -65.299522 64.251816 -0.14589906 -0.57312787 -0.8063733
0.80764765 -63.868206 62.880211 -0.200298 -0.61378735 -0.76363981
2.9703777 -65.247467 62.875935 -0.31841788 -0.55856895 -0.7659052
3.9759254 -64.427399 62.296024 -0.2433127 -0.64465296 -0.72472173
3.8997729 -63.345287 60.871883 -0.37050965 -0.61208433 -0.6986239
5.3392272 -62.698952 59.549461 -0.38307932 -0.60011488 -0.70221961
6.3596535 -64.437218 60.726543 -0.46361431 -0.54420173 -0.69921833
-1.7191275 -63.98624 63.194279 -0.069423139 -0.59795779 -0.79851544
2.6693389 -64.046844 62.604317 -0.37146807 -0.58284622 -0.72270453
6.2953033 -62.011055 58.875362 -0.39978075 -0.5024755 -0.76661193
-3.892921 -65.323456 64.458839 -0.014965901 -0.59228224 -0.80559158
3.1885045 -63.423164 61.402912 -0.35973322 -0.56660783 -0.74131477
4.072248 -62.151279 60.323196 -0.42503434 -0.50105673 -0.75384879
7.1994209 -61.168251 57.823902 -0.51776981 -0.53517282 -0.66746122
-5.937398 -63.255436 63.02935 0.021245386 -0.56852567 -0.82239109
-1.4281834 -61.760368 61.626816 -0.097411267 -0.5987404 -0.79499751
2.1551616 -63.047558 61.610115 -0.26887938 -0.61958015 -0.73744446
2.7047927 -60.87896 60.013992 -0.35235265 -0.55081671 -0.75660336
4.7651381 -62.286915 59.758751 -0.4095543 -0.52795267 -0.74399686
6.3032675 -59.944637 57.437824 -0.40856758 -0.63096058 -0.65951586
8.4134922 -59.22311 54.767246 -0.52331781 -0.57298994 -0.63073057
-5.2321782 -61.881065 61.94091 0.024024416 -0.62177181 -0.78282988
-2.2624722 -62.886707 62.743073 -0.057163019 -0.5752027 -0.81601119
3.9454346 -60.208271 58.761074 -0.36759427 -0.56682438 -0.73728192
7.051374 -58.2892 55.139652 -0.49584934 -0.58115751 -0.64528233
7.4894691 -59.579704 56.011494 -0.55614924 -0.58324397 -0.59205109
-0.4470081 -62.378555 61.997673 -0.15140961 -0.57619327 -0.80316645
1.0100268 -62.202148 61.332565 -0.25585127 -0.55616856 -0.79070646
1.8413118 -59.730404 59.542301 -0.24426489 -0.59703267 -0.76412487
5.406877 -59.516827 57.611771 -0.39004642 -0.57734776 -0.71730977
5.0000606 -58.169884 56.444611 -0.34000435 -0.64231247 -0.68690002
6.0437574 -58.809681 55.994595 -0.48666507 -0.60910803 -0.6262145
-3.3326197 -60.441242 60.860321 -0.034383971 -0.62244076 -0.78191131
-2.3808153 -58.173458 58.980824 -0.083990529 -0.6197806 -0.78026766
-0.10290843 -60.310215 60.498127 -0.15011474 -0.60073036 -0.78523165
2.5720754 -58.821079 58.301414 -0.30990791 -0.62436879 -0.71702212
3.6859972 -58.381233 57.296864 -0.38408032 -0.59746957 -0.70392644
5.921535 -57.75655 55.606174 -0.50464547 -0.54551917 -0.66913509
7.5616074 -56.736706 53.465446 -0.52072871 -0.50595063 -0.68764502
9.583065 -56.54385 51.927155 -0.55302048 -0.53068608 -0.64229333
-5.0999517 -60.062199 60.482712 0.032753456 -0.62459362 -0.78026277
0.4058795 -59.148373 59.260372 -0.18325709 -0.6533106 -0.73457611
3.3059578 -57.894154 57.213432 -0.35065386 -0.59676856 -0.72174037
7.6322708 -55.33012 52.556568 -0.46311212 -0.59146881 -0.66006958
8.494792 -54.541058 50.972569 -0.54541147 -0.60717654 -0.57780874
-4.339119 -58.931759 59.617504 0.010364979 -0.63145763 -0.77534115
0.37437353 -57.343643 57.572754 -0.1959368 -0.6276992 -0.75339401
1.7917295 -57.150635 57.218422 -0.2363971 -0.61259806 -0.75421482
5.292263 -54.977169 53.434322 -0.36738136 -0.60803616 -0.7037918
5.6806006 -56.253006 54.42432 -0.41924787 -0.58369237 -0.69536644
-0.80073261 -57.047234 57.926174 -0.20906092 -0.6069389 -0.7667585
3.7110636 -55.337414 54.856106 -0.40736765 -0.59729761 -0.69085968
4.4530401 -55.442326 54.488586 -0.42456552 -0.60194236 -0.67632055
0.62791926 -55.571663 56.415962 -0.24791533 -0.62634581 -0.73907298
2.2982795 -55.522495 55.644623 -0.28331444 -0.64438188 -0.71028507
3.52689 -53.585747 53.429619 -0.30739635 -0.64634758 -0.69838548
0.65363657 -54.602306 55.234306 -0.22150251 -0.69905686 -0.67989427
4.0218754 -53.348763 52.640636 -0.41518629 -0.6151436 -0.67023784
14.909859 52.363014 -201.94598 -0.26459214 -0.69047189 -0.67323065
15.766708 -0.75889617 -114.32823 -0.57374293 -0.74920809 -0.33091739
15.924991 0.46197972 -116.22249 -0.50538486 -0.73620749 -0.45009398
18.500582 10.268034 -138.36261 -0.41907182 -0.82466102 -0.37988549
12.352996 54.008804 -203.27444 0.092718184 -0.66245663 -0.74334013
13.827793 53.426479 -202.78821 -0.084855027 -0.69339842 -0.71554053
15.031336 54.594681 -203.6015 -0.20374222 -0.43513104 -0.87701201
17.198584 10.974133 -137.74261 -0.76695943 -0.56102771 -0.31148216
17.485357 11.975809 -140.58195 -0.73801601 -0.58620077 -0.33421707
17.803244 13.024308 -142.67494 -0.65716565 -0.66671282 -0.35160682
17.587132 13.783484 -144.16922 -0.79568177 -0.51404333 -0.32039034
18.339451 13.253734 -144.14886 -0.51588064 -0.74606115 -0.42102247
18.772669 13.550215 -144.93924 -0.19242783 -0.87443012 -0.44535777
18.788998 15.199419 -147.83284 -0.62489057 -0.68547148 -0.37368521
16.078032 14.365229 -140.09538 -0.57456428 -0.75760466 -0.30969509
16.149107 13.728138 -139.424 -0.75471359 -0.54745257 -0.36152866
16.974932 15.68864 -144.89258 -0.74751443 -0.57348979 -0.33515894
17.896341 15.486669 -147.24644 -0.71437991 -0.59960794 -0.36073756
18.851799 16.624626 -150.71707 -0.54873049 -0.73193967 -0.40392968
16.047918 17.187517 -146.05324 -0.66437399 -0.65447837 -0.36092278
18.015936 17.253937 -150.72191 -0.75135809 -0.58216631 -0.31071457
18.978865 19.060528 -154.84651 -0.65086192 -0.66584009 -0.36474061
19.387224 20.55398 -158.46024 -0.58844239 -0.71473992 -0.37799799
17.612429 17.395802 -149.41476 -0.7380566 -0.5841257 -0.33774194
17.730131 18.974806 -152.24089 -0.79912531 -0.511935 -0.31515285
19.721462 19.168205 -155.7384 -0.47690243 -0.79199183 -0.38119945
18.258209 19.046148 -154.08223 -0.72586483 -0.56808829 -0.38780931
16.406267 19.296585 -150.51117 -0.69771272 -0.58897442 -0.40780655
17.514069 21.378002 -155.65652 -0.73508054 -0.59528816 -0.32448196
18.740658 20.892435 -158.09367 -0.65651482 -0.65336198 -0.37696999
19.540657 22.053192 -160.91203 -0.59090418 -0.69188935 -0.41487512
17.086946 19.783291 -151.70598 -0.71370864 -0.59501487 -0.36956346
16.265253 20.456537 -151.79755 -0.66617602 -0.65882456 -0.34951362
17.09593 20.150305 -153.21759 -0.76051199 -0.56439793 -0.32105535
16.563444 21.933969 -154.67162 -0.65924704 -0.64419204 -0.38782725
16.590111 23.270527 -157.89262 -0.68108004 -0.63417178 -0.36600024
17.907896 21.190987 -156.88583 -0.73329145 -0.59815258 -0.32326037
18.470072 22.615067 -160.33073 -0.77277857 -0.5459556 -0.32364434
18.080435 22.634027 -158.9043 -0.70897621 -0.58552176 -0.39308664
18.849854 23.331554 -162.47896 -0.77599061 -0.54418129 -0.31891298
17.343105 23.810442 -160.17111 -0.62656844 -0.65491349 -0.42249283
15.934116 22.959517 -155.66756 -0.68451124 -0.65367073 -0.32273665
16.909843 24.418076 -159.93376 -0.6552 -0.63220674 -0.41355494
17.972115 24.584335 -161.76686 -0.74686158 -0.57137996 -0.34018019
16.617519 26.243736 -162.25185 -0.61764312 -0.6860106 -0.38458604
18.281424 24.950018 -163.64534 -0.74563909 -0.56461525 -0.35388127
18.172163 26.116688 -164.94644 -0.67949867 -0.63349706 -0.37008524
19.008991 27.265617 -169.46577 -0.75546402 -0.54259592 -0.36723796
20.209076 27.886513 -171.76585 -0.2455487 -0.83171195 -0.49795687
17.318008 26.781818 -164.46875 -0.70001715 -0.58968651 -0.40279755
17.158703 25.599176 -162.45323 -0.67320639 -0.64860362 -0.35511482
17.856007 27.260324 -166.86952 -0.76306081 -0.53688538 -0.3598505
18.590639 26.950745 -167.50023 -0.78213084 -0.53275448 -0.32317808
19.207928 28.592154 -171.76743 -0.72863322 -0.58197463 -0.36110821
16.17223 27.476767 -164.23065 -0.56210667 -0.71735984 -0.41161999
16.492708 28.507023 -165.61012 -0.61254025 -0.61934173 -0.49113169
17.037054 29.263084 -167.43932 -0.79343396 -0.46957761 -0.38724586
18.078939 29.226772 -170.17203 -0.8367551 -0.45370063 -0.30658859
18.616383 29.393324 -171.1851 -0.80401945 -0.49805048 -0.32480541
19.443125 29.610622 -173.97798 -0.6474185 -0.65615314 -0.38770139
19.802561 31.19396 -177.29195 -0.713278 -0.60017538 -0.3619723
17.425276 30.10006 -169.33794 -0.82175082 -0.45757863 -0.33962849
18.897047 30.411842 -173.82405 -0.83748943 -0.47062805 -0.27770606
18.906082 31.80431 -176.56003 -0.75035161 -0.55488455 -0.35927093
20.485706 32.098392 -179.52794 -0.64316058 -0.64151609 -0.41809288
16.242496 29.933104 -167.19954 -0.62824941 -0.54705018 -0.5532077
17.137411 30.295259 -168.11061 -0.84312034 -0.23315862 -0.4845463
17.911121 31.778278 -173.62323 -0.79953378 -0.48973709 -0.34771141
19.371023 32.349571 -177.72469 -0.81989104 -0.4768737 -0.3168124
19.479256 32.81493 -179.32466 -0.73344749 -0.56142634 -0.38321692
20.400417 33.934425 -182.59566 -0.68287629 -0.63226706 -0.36594865
17.412672 31.494293 -171.93544 -0.80269819 -0.51039678 -0.30849755
19.181162 34.505379 -180.56944 -0.71094644 -0.59714961 -0.37143984
19.742708 34.214874 -181.56194 -0.72397208 -0.59233463 -0.35355932
17.688986 33.071247 -174.23283 -0.87244534 -0.40948933 -0.26675355
18.465742 34.157692 -178.44119 -0.79229498 -0.5166381 -0.32458273
19.344845 35.221905 -182.937 -0.76200962 -0.55326647 -0.33650807
19.92938 35.05748 -183.63139 -0.68185794 -0.61092204 -0.40229845
20.495266 34.997406 -183.85648 -0.28342733 -0.82254726 -0.49303651
20.412853 35.617733 -185.41112 -0.65523416 -0.6484372 -0.38755307
18.234665 32.949146 -176.27258 -0.83713263 -0.46629381 -0.28597018
18.646587 34.619099 -180.11378 -0.8109411 -0.5111078 -0.28485656
0.80942231 -12.579975 -97.956352 -0.017244717 -0.76364338 -0.64540803
15.981455 23.769892 -157.19427 -0.69678313 -0.63800287 -0.3277888
15.583809 -86.29422 63.91436 -0.71999282 -0.32244521 -0.61452371
14.335252 -86.960167 65.64888 -0.71901429 -0.25684327 -0.64579415
14.9154 -83.405792 63.688385 -0.78242826 -0.27039024 -0.56097698
7.1574159 -92.080864 74.732613 -0.54556388 -0.3049663 -0.78061241
3.0497983 -80.925476 72.368881 -0.27519828 -0.42193392 -0.86385047
8.9520626 -60.403767 55.469505 -0.50775832 -0.58145237 -0.63568443
7.9996419 -61.212662 57.12886 -0.55949491 -0.53725773 -0.63112557
9.6366539 -58.266052 52.94471 -0.52556366 -0.52586895 -0.66876364
15.450934 49.443378 -198.0748 -0.44657686 -0.70445967 -0.55163902
13.689486 -4.7772136 -102.5778 -0.69951433 -0.42696032 -0.57304865
15.473599 -87.503532 64.720123 -0.70567167 -0.34721628 -0.61763132
21.055462 -69.770584 46.773514 -0.63528323 -0.50115901 -0.58758396
17.792032 35.424484 -179.30443 -0.78800082 -0.51992375 -0.32974851
5.3437648 -53.069927 51.946522 -0.41050202 -0.61966687 -0.66895521
12.232583 51.317505 -199.86917 0.076963164 -0.80326456 -0.5906291
0.96281409 -2.6345406 -101.44432 0.51356608 -0.36131907 -0.77826625
2.9659722 -0.77587885 -101.00102 0.38340127 -0.44589904 -0.80881244
18.230618 52.983978 -203.94003 -0.18956968 -0.17537917 -0.96607739
16.567667 54.150993 -204.0009 -0.23748036 -0.27594617 -0.93137366
3.626169 -13.180236 -97.351601 0.010679943 -0.70160371 -0.71248734
1.5610504 -11.603951 -98.60437 0.17197689 -0.45427537 -0.87410402
2.3286045 -10.671285 -98.84153 0.21714428 -0.12578475 -0.96800131
9.3704729 -10.785625 -98.468193 -0.12715484 -0.1421508 -0.98164392
1.2068446 -8.7331448 -99.429855 0.34588036 -0.075434089 -0.93524134
6.4763951 -11.751686 -98.098854 0.056556668 -0.26082999 -0.9637267
4.349997 -7.8605494 -98.525414 0.16372676 -0.093246907 -0.98208892
7.2185163 -9.5703716 -98.304268 -0.065057896 -0.090003207 -0.99381429
11.120623 -9.2191219 -99.110077 -0.40871102 -0.17786032 -0.89516538
13.331944 -8.1971788 -100.81574 -0.53870183 -0.31165996 -0.78273141
14.13389 -7.2868576 -102.17802 -0.52052826 -0.54284662 -0.6590659
-0.1232567 -8.7301292 -100.10962 0.49295723 -0.21308391 -0.843557
13.827147 -6.6203666 -101.58318 -0.67429471 -0.28129682 -0.68278754
10.948271 -7.8759537 -98.912476 -0.34374121 -0.12871836 -0.93020087
1.356578 -6.4261112 -99.543419 0.45568758 -0.17473856 -0.87282032
-0.0035998879 -4.139565 -101.21989 0.71334291 -0.27972943 -0.64256781
7.0184555 -7.2962132 -98.522377 0.0033518893 -0.11985707 -0.99278545
10.981229 -5.7363157 -99.613274 -0.52377158 -0.2906346 -0.80074638
11.663609 -5.2880888 -100.56193 -0.62665951 -0.30481783 -0.71720564
-0.59672642 -4.376905 -102.60395 0.79293215 -0.35889617 -0.49239427
9.320899 -5.8552232 -98.823708 -0.23385382 -0.21671464 -0.94781178
