# .PCD v0.7 - Point Cloud Data file format
VERSION 0.7
FIELDS x y z normal_x normal_y normal_z
SIZE 4 4 4 4 4 4
TYPE F F F F F F
COUNT 1 1 1 1 1 1
WIDTH 730
HEIGHT 1
VIEWPOINT 0 0 0 1 0 0 0
POINTS 730
DATA ascii
-22.280045 96.04287 81.737251 0.38571742 -0.016980449 0.92246068
-20.685095 93.708061 80.940117 0.22663917 -0.010419909 0.97392303
-2.5996521 98.815094 86.009514 0.81987387 0.0054676854 0.57251799
-21.776173 89.47303 81.413925 0.40318546 -0.0025418911 0.91511482
-0.16880181 89.173538 61.312748 0.78114098 -0.081023067 0.61907518
-20.11758 88.446869 80.818176 0.27189049 -0.016123222 0.96219313
-2.7230699 94.598221 85.986534 0.6509822 -0.048756134 0.75752562
0.72138715 85.10891 60.000526 0.87862957 -0.010323845 0.47739244
-2.8265576 92.693382 85.888779 0.62508988 0.0017545279 0.78055078
-21.657883 86.303947 81.336678 0.420508 -0.032158725 0.90671879
-2.6029201 89.711838 85.710625 0.75666815 -0.013927349 0.65365088
-0.41849655 84.560272 60.707504 0.3473663 -0.11252473 0.93095374
0.16956256 82.787941 60.418003 0.34561136 -0.13257505 0.92896533
-23.475075 84.144341 82.316414 0.40784502 -0.00022807281 0.91305113
-21.550322 83.630829 81.163849 0.39306024 0.0045811143 0.9195013
-2.7054789 87.845848 85.827698 0.5055331 -0.019345168 0.86259025
-22.149601 81.136536 81.5756 0.431196 0.014208793 0.90214634
-3.3636334 84.985039 86.136482 -0.0052229082 0.0054768668 0.99997139
0.044394895 78.026009 59.728077 0.39209992 -0.12161151 0.9118489
-22.534737 78.958954 81.815338 0.43568543 -0.0027043216 0.90009499
-19.055197 79.352158 80.445137 0.25325683 -0.022784555 0.96713072
-21.640806 75.74823 81.181488 0.41987133 -0.0050483481 0.90756965
-2.13674 80.947884 85.117813 0.8975935 0.020214187 0.44036046
-0.09186694 74.746422 59.26239 0.24298595 -0.13123062 0.96111202
0.96521604 73.085426 58.486198 0.68161565 -0.055159591 0.72962838
-1.9940176 77.284485 84.682823 0.98516071 0.016789148 0.17081141
0.88459057 71.629807 58.43322 0.88311779 -0.068609744 0.46410754
-2.8359571 79.184273 85.741272 0.45125318 -0.01342057 0.892295
-20.346668 74.317299 80.726036 0.40504652 0.00057429844 0.91429591
-20.772532 69.193748 80.784279 0.42958418 -0.020484827 0.90279442
-20.636953 67.242821 80.682091 0.388219 0.0084766634 0.92152816
0.68892854 63.620178 57.476967 0.29192895 -0.13343242 0.94708675
0.92358518 61.745152 57.00116 0.23932813 -0.1358771 0.96138406
0.53959191 -44.379372 74.622681 0.99787903 -0.018793495 0.062323827
-18.966118 63.889172 80.106995 0.30810907 -0.032362338 0.95080042
-21.079741 64.069397 81.04451 0.48695645 0.0014630813 0.87342495
1.1275474 59.381477 56.602249 0.50824404 -0.11715152 0.85320771
-22.122917 61.770744 81.756416 0.39605328 -0.017678795 0.91805738
-19.033661 61.164108 79.950417 0.20054893 -0.021134781 0.97945571
-2.04795 66.664597 84.881271 0.81365615 -0.0041295439 0.58133173
1.7569503 58.060123 55.428833 0.99203688 0.072001122 0.10333747
-2.7315254 66.027527 85.451149 -0.068360463 -0.051493686 0.99633092
-20.558294 61.151962 80.544456 0.46655953 -0.016598092 0.88433403
-22.758883 59.389275 81.902473 0.29008645 -0.058650643 0.95520151
-18.654835 58.434532 79.800575 0.30290622 -0.022555826 0.95275342
-2.4066119 63.617691 85.259293 0.58069402 -0.062163465 0.81174511
-22.760382 57.394169 81.864021 0.34785563 0.0009316284 0.93754762
1.1245099 53.020741 55.556698 0.43098885 -0.10881638 0.89577204
-2.6832304 61.837708 85.257965 0.56128114 -0.022975 0.82730627
-19.431351 55.935551 80.038498 0.41097885 -0.019793091 0.91142988
-21.720079 54.829514 81.353859 0.44883168 -0.022065533 0.89334381
1.9060282 51.175793 54.830048 0.72232175 -0.12378638 0.68038827
-2.1962316 57.784416 84.859108 0.56652761 -0.0035290583 0.82403517
-3.5437121 59.287239 84.948814 -0.36582792 -0.045596935 0.92956483
-20.111862 53.570099 80.247002 0.46783575 -0.00070889614 0.88381511
-23.089693 51.39941 81.715607 0.04505479 -0.044209089 0.99800581
-17.099848 50.596657 79.215195 0.12536259 -0.07382217 0.98936069
0.81451428 46.127522 54.359909 -0.13418314 -0.20157024 0.97023928
2.0658317 46.168526 53.93285 0.64635867 -0.096134067 0.7569536
-15.544926 49.806324 78.874084 0.0038588757 -0.084739432 0.99639565
2.4565334 42.232418 52.824604 0.92012167 -0.03953331 0.38963228
2.1021025 39.915462 52.871864 0.64155316 -0.11876194 0.75782925
-19.7248 44.428974 79.810181 0.44905934 -0.022438135 0.89322013
-1.9822232 49.467426 84.309166 0.62308371 -0.019464884 0.78191298
-17.242693 42.354099 78.940918 0.20174412 -0.021841306 0.9791947
-19.636457 39.993225 79.764862 0.46504921 -0.013504434 0.88518178
-18.845098 42.888142 79.417511 0.42096496 -0.017098632 0.90691572
-1.7722205 45.769352 83.94622 0.91271597 -0.018107651 0.40819305
-18.540611 40.348278 79.208107 0.29533094 -0.013375243 0.95530134
-2.2751589 43.692055 84.274879 0.47627813 -0.031388946 0.87873423
-19.682447 37.539165 79.751762 0.44680405 -0.021437621 0.89437497
-19.411127 34.916832 79.499527 0.45579004 -0.018653341 0.88989186
2.3435969 30.947586 51.401199 0.60552025 -0.10353081 0.78906691
-1.524073 38.840763 83.223656 0.89206147 -0.073588684 0.44588235
-17.560907 31.459236 78.623634 0.28060141 -0.05167906 0.95843208
-2.0967205 38.037014 83.783279 0.68321598 -0.025971655 0.72975433
-4.0448275 23.630072 45.078873 -0.32604256 -0.1948093 0.92506516
3.0724542 27.372719 49.982277 0.85844356 -0.067295417 0.50847423
-21.405684 31.470766 80.580025 0.35895684 -0.094528392 0.92855495
-1.9345391 35.542526 83.490562 0.65992075 0.016530853 0.75115323
-19.638153 29.911829 79.515305 0.48723093 -0.014127646 0.87315893
-4.4627385 19.161764 43.965527 -0.3508817 -0.1991666 0.91499448
2.4089365 24.615202 50.276573 0.42709345 -0.16228442 0.88952512
-17.505444 29.23889 78.332146 0.28379864 0.0042988514 0.95887423
3.3257339 23.437332 48.904922 0.95595306 -0.0015648293 0.2935155
-19.995111 26.744486 79.764641 0.38488671 0.032706749 0.92238414
-1.5378103 31.781502 83.153656 0.82572234 -0.063848086 0.56045163
-1.3226714 33.979839 83.002815 0.94452083 0.020759501 0.32779485
-2.6767876 30.029228 83.412102 -0.34477282 -0.11488985 0.9316287
-5.2870054 14.014482 42.56282 -0.14112023 -0.20435059 0.96867228
2.6427584 19.166908 49.049938 0.24294399 -0.16606884 0.95571935
3.7239032 17.770624 48.238293 0.84066117 -0.1341058 0.5246945
-18.96114 21.244589 80.374001 0.27838653 0.25710446 0.92541778
-16.498539 21.887482 79.240295 0.1204563 0.33037096 0.93613315
3.3864565 12.393051 47.641651 0.55942112 -0.12800536 0.81893998
3.877785 12.040215 46.781754 0.98436922 -0.032246608 0.17314018
-1.9614962 20.936113 83.193237 0.44200993 0.051273819 0.89554346
3.4537868 11.181828 47.317562 0.74784034 -0.10683538 0.65522581
3.4193156 8.064127 46.805592 0.57773155 -0.14750427 0.80278808
-4.9880118 18.215818 83.639824 -0.26224974 0.29071662 0.92016786
-2.3802717 15.889343 83.613129 0.50583965 -0.034112442 0.86195278
1.0123875 -98.473732 81.028839 -0.16161288 0.20613566 0.96508515
-2.7342973 11.321515 83.354134 0.48866239 -0.038346577 0.87162983
-17.846066 -105.33396 78.797676 -0.31973553 -0.15044345 0.93548703
-4.7982311 -10.071465 37.073734 -0.060514215 -0.23207906 0.97081268
4.1480131 -5.6666784 43.701588 0.59622651 -0.17363703 0.78381389
-1.6540631 6.9349699 82.217751 0.78503472 -0.033860058 0.61852556
3.2170117 -97.666 81.470261 0.0071172803 0.1994679 0.97987849
-7.1128445 5.5846515 84.481903 0.11909541 -0.10956547 0.98681897
4.2482624 -6.9789357 43.185783 0.78405881 -0.10215949 0.61222148
-4.9845257 -14.893723 35.976414 0.074126355 -0.19903578 0.97718471
3.5346808 -11.465426 42.568863 -0.21221744 -0.25765902 0.94264287
-4.7413249 -18.552719 35.040504 0.0039225398 -0.21982615 0.97553122
4.4268765 -15.103726 41.697731 0.2602452 -0.22055027 0.94001591
-6.3225245 -17.756298 35.431255 0.13880384 -0.21142401 0.96748817
-4.4232845 0.036641423 83.260201 0.3603299 -0.06246011 0.93073148
-6.1402245 -20.446875 34.909447 0.15945832 -0.22890013 0.96030092
-4.3515005 -3.9796262 83.060318 0.33576882 -0.052060962 0.94050467
-3.0099602 -3.4776745 82.489014 0.52739477 -0.070460387 0.84669369
-6.8659377 -25.105833 33.958378 0.33883274 -0.19572401 0.92026329
-4.5384378 -24.030727 33.690758 -0.0096562672 -0.22891653 0.97339821
-5.8080106 -26.394461 33.483757 0.16570871 -0.23027596 0.95891279
-3.4614313 -6.3378687 82.453537 0.45565194 -0.062243383 0.88797915
-3.877486 -8.9371691 82.523857 0.41829574 -0.055512957 0.90661293
-6.5553699 -28.938217 32.875362 0.29552928 -0.21010713 0.93194282
-4.9969635 -29.359692 32.546417 0.1130343 -0.25017315 0.96158028
-5.1036696 -11.633481 82.74192 0.33199757 -0.10904692 0.93695593
-3.5649104 -29.782936 32.31461 -0.035555042 -0.21717387 0.97548521
-4.0914912 -31.469196 32.061268 0.017714998 -0.27046835 0.9625659
-7.0488472 -12.160479 83.142906 0.10593399 -0.10828879 0.98845923
-3.5020726 -12.007113 82.083145 0.41544205 -0.049501184 0.90827173
-2.2909436 -13.956559 81.468567 0.55486757 -0.06127166 0.82967937
-4.713006 -14.199286 82.468483 0.31085855 -0.082797877 0.94684291
-3.4214075 -16.918697 81.59832 0.49259222 -0.09045545 0.86554658
-1.0076109 -15.606823 80.126205 0.76673841 -0.099946469 0.63413161
-5.5609651 -38.875896 30.196331 0.33278692 -0.18741043 0.92419159
-3.1373076 -18.949286 81.48246 0.39199045 -0.043195777 0.91895467
-5.6801987 -20.376337 82.186699 0.21210444 -0.027506433 0.97685981
-1.8918095 -19.097679 80.633995 0.69935995 -0.035496876 0.71388763
-6.1602082 -43.132942 29.572252 0.42309043 -0.19454411 0.88495594
-4.0238667 -20.680639 81.678474 0.392465 -0.11204185 0.9129172
-5.6568742 -43.284096 29.021355 0.25637859 -0.30109641 0.91848296
-1.5803162 -22.655081 80.021255 0.63990432 -0.070783079 0.76518774
-4.3786292 -43.747799 28.714684 0.19596909 -0.19722329 0.9605723
-5.2129288 -23.310854 81.730988 0.33655804 -0.10511833 0.93577713
-0.050784431 -56.738678 75.423454 0.79868549 0.018456461 0.60146564
-3.5503583 -24.393736 81.12413 0.42047831 -0.059537962 0.90534705
-5.7064261 -46.848846 28.390373 0.35251033 -0.23004684 0.90709144
-4.6830473 -27.833115 81.180809 0.31849694 -0.092860334 0.94336456
4.3818407 -99.08474 81.173714 0.45923159 0.17225523 0.87145531
-4.8204451 -47.873314 27.689295 0.28623417 -0.21229254 0.93434566
3.6214485 -99.805504 81.674545 0.093985364 0.11061344 0.98940963
-4.9924383 -49.008957 27.775566 0.34215918 -0.15173939 0.9273091
1.9799278 -102.81578 81.870071 -0.095279984 -0.0092432443 0.99540764
-6.9438796 -28.638115 81.588913 0.12761873 -0.18054582 0.97525209
-7.4675717 -29.636673 81.582169 0.056762885 -0.071851097 0.99579883
-5.3374863 -50.889744 27.386482 0.40023965 -0.26180109 0.87821883
-2.7252216 -27.667662 80.402504 0.47607693 -0.08264374 0.87551165
-4.3759303 -53.066669 26.310368 0.32208544 -0.2134394 0.92233646
-3.0305028 -50.825813 26.802446 0.055815481 -0.26443335 0.96278745
-4.6161871 -31.040436 80.917877 0.31682542 -0.091481745 0.94406182
-2.439774 -30.924955 79.780403 0.50981736 -0.094943829 0.85502738
-3.0762687 -53.711624 25.903172 0.14487596 -0.21117501 0.96665198
-7.6080341 -32.202053 81.504219 0.098232649 -0.1030609 0.98981255
-5.9786935 -55.504753 26.692732 0.43855664 -0.20614192 0.87474209
-2.7424016 -55.376167 25.730289 0.08614891 -0.25440955 0.96325189
-3.7344329 -33.387772 80.299377 0.38494134 -0.074214078 0.91995245
-4.0279584 -56.381992 25.541281 0.25388569 -0.2895779 0.92286873
-2.3055429 -35.738483 79.553139 0.52427518 -0.10545579 0.84499377
-2.2277834 -57.501789 24.957718 0.0050262408 -0.17620254 0.98434103
4.0360327 -102.85976 81.979324 0.15317012 0.064806037 0.98607254
-5.3779268 -57.703712 25.596928 0.38199887 -0.19153266 0.90409738
-3.124886 -58.187 24.694025 0.2035152 -0.12226881 0.97140718
-3.921082 -37.055351 79.95784 0.33105487 -0.12855636 0.93481332
-4.400176 -60.004799 25.135477 0.26204708 -0.097779691 0.96008873
-2.4369428 -37.885723 79.081001 0.56531906 -0.10939911 0.81758565
-4.8110366 -61.598869 24.770769 0.20235336 -0.1274109 0.97098893
-3.5559216 -39.331463 79.501945 0.42507634 -0.086602524 0.90100497
-3.3214653 -62.038212 24.666246 -0.026770806 0.0001187751 0.99964154
-4.8684373 -63.314224 24.7845 0.21389864 0.028361985 0.97644401
6.8740444 -56.822948 30.910137 -0.35172519 -0.32067496 0.87946403
-4.2014236 -41.437477 79.591118 0.35620341 -0.10276829 0.92873991
-6.2237902 -43.385571 79.94706 0.20136917 -0.15464848 0.96723026
-3.7456009 -43.504665 79.13607 0.41276479 -0.095943116 0.90577054
-2.1225841 -45.519909 78.227745 0.50291145 -0.067817636 0.8616733
-2.6431863 -47.858101 78.130051 0.44983125 -0.14135936 0.88185567
6.729733 -39.461731 34.138512 0.88408309 0.10040828 -0.45641571
-1.1754194 -56.939903 76.250206 0.6005432 -0.10307214 0.79292119
-4.2481952 -46.139454 79.094498 0.30713743 -0.12059715 0.94399309
-1.5583751 -48.763523 77.250046 0.58072233 -0.084793292 0.80967385
8.0877075 -66.696548 28.042377 -0.23911807 -0.15233874 0.95896584
4.7580132 -102.05384 81.388466 0.50781441 0.13076422 0.85148424
-6.8319554 -51.293839 79.100281 0.039039731 -0.12885392 0.99089491
-1.5092087 -50.543243 77.318199 0.48575467 -0.07310687 0.87103254
-4.8441281 -52.389996 78.466591 0.29676589 -0.1113776 0.94843292
-0.52987307 -50.970829 76.433266 0.75672275 -0.038944155 0.65257496
-3.2921011 -53.93013 77.722618 0.40990162 -0.11513949 0.90483344
-5.0075088 -56.1646 78.039345 0.21295436 -0.11157688 0.9706704
-3.3802586 -58.466175 77.138962 0.39756346 -0.12629649 0.90884125
-5.0692286 -58.257099 77.753845 0.2162953 -0.13929671 0.96633989
-1.501956 -59.414394 76.053368 0.48171175 -0.1220699 0.86778611
-1.3229312 -62.251099 75.581253 0.41446754 -0.050609335 0.90865576
-3.4343331 -60.663273 76.865906 0.36618486 -0.12707928 0.92182404
-3.8936617 -63.832325 76.63578 0.34519809 -0.093112156 0.93389958
-2.3130667 -66.045624 75.691956 0.26978317 -0.094386414 0.95828396
-5.3997464 -66.882591 76.587242 0.19098538 -0.14539777 0.9707647
-7.5504341 -68.026703 76.547119 -0.047193129 -0.16439928 0.98526424
-4.6157937 -69.007668 76.138451 0.15502632 -0.050129108 0.98663771
-2.0694447 -67.301895 75.608116 0.037143242 0.12409618 0.99157476
0.093549035 -66.227798 75.439026 0.34171033 0.14768413 0.92812896
1.6665854 -67.392334 74.508835 0.68768281 0.25018746 0.68154138
-23.115118 156.55673 80.408905 0.33047241 0.08731313 0.93976825
-5.0728822 148.65733 86.326538 0.051907565 0.047152027 0.99753809
-4.8741317 144.10851 86.504463 -0.14418165 0.011311295 0.98948658
-4.1614032 126.50089 86.700325 0.23892686 -0.057333536 0.96934348
-23.593359 80.808044 82.380203 0.34144643 -0.023872897 0.93959802
-20.629351 79.431061 80.889305 0.36471304 -0.01590883 0.93098408
-23.600241 74.221519 82.459732 0.27418017 -0.039503694 0.96086663
1.3884945 42.893353 53.731289 0.10648554 -0.18822369 0.9763363
-18.83287 49.444645 79.608322 0.40703309 -0.046238892 0.91224229
1.8259188 37.760841 52.790188 0.30765197 -0.15526219 0.93874592
-6.2732444 -37.353706 80.608238 0.1510376 -0.13695869 0.97899437
-0.11044536 -79.75605 77.756844 -0.16216423 0.15554743 0.97442687
-0.041237231 72.329605 58.907345 0.26459488 -0.11564121 0.95740098
-11.542139 -75.967041 24.334715 -0.4644098 0.15361744 0.87219566
-28.673018 135.69379 81.239235 -0.98187673 -0.034411989 -0.18637033
-21.162771 69.53833 54.111183 -0.9359262 0.0051338417 0.3521589
-0.15526001 -59.80648 75.11525 0.63905829 -0.028073965 0.76864576
-1.5262468 85.352882 60.746956 -0.76867747 -0.06433069 0.63639331
-0.069681652 80.831383 60.208462 0.37229201 -0.14525618 0.91667837
0.33969277 69.628563 58.45406 0.48565909 -0.16088533 0.85921544
-5.5261817 105.05965 58.919716 -0.92121118 0.34658855 0.17676648
-1.1106482 107.09847 63.869579 -0.075648539 -0.085801728 0.9934361
-24.496044 152.09639 81.389069 0.38202974 0.016927272 0.92399502
-4.4174776 157.51714 85.754608 0.4583374 -0.010617943 0.88871485
-17.101505 -59.032948 70.092484 -0.83961254 0.02395013 -0.54265743
-18.027828 -68.11161 70.569992 -0.97548735 0.0077236919 -0.21992013
-21.679672 147.94417 80.177658 0.41092882 -0.12163328 0.90351689
-22.830626 146.14537 80.637848 0.72442377 -0.084407412 0.68416786
-5.2611394 153.5153 86.082405 -0.24044515 0.048222657 0.96946406
-20.518757 143.64107 62.916191 0.55725759 -0.036245581 0.82954824
-22.399696 144.54625 79.667778 0.79960257 -0.13893752 0.58423626
-19.245497 143.12712 61.284809 0.88511789 0.094506875 -0.45566973
-20.158447 141.76567 62.688271 0.58702469 -0.0060502873 0.80954641
-22.99601 139.0015 63.97023 0.33510309 -0.074141093 0.93925977
-3.3920662 146.17593 84.716873 0.99713171 0.031766646 -0.068696573
-19.225899 140.41887 61.708172 0.93308985 0.020931691 0.35903358
-20.268095 139.80869 62.612003 0.5137226 -0.078449301 0.85436219
-22.1464 140.02647 79.650421 0.94105297 0.010747117 -0.33808842
-23.194464 140.90117 81.401802 0.50185555 0.057265084 0.86305362
-22.703421 139.41176 81.041397 0.83024842 -0.0066835573 0.55735344
-3.288384 143.62039 84.972862 0.98950267 0.02465182 -0.14239642
-21.759998 136.78038 63.044662 0.51164854 -0.061537225 0.85698825
-19.827887 137.79515 62.16473 0.60268074 -0.032834996 0.79730654
-22.338112 137.79251 80.163353 0.82762629 -0.012374745 0.56114304
-19.575191 135.78062 62.07024 0.72697693 -0.094848603 0.68007964
-23.576395 137.1528 81.709518 0.54145318 0.009510356 0.84067708
-3.6170545 143.63692 85.898705 0.6985805 0.025760835 0.71506763
-1.2241292 139.53661 65.552727 0.98384792 0.062004216 -0.16792515
-22.108921 135.51183 79.685493 0.80210489 -0.001608575 -0.59718102
-22.59057 135.1355 80.769455 0.69737875 0.077505253 0.71249974
-19.739555 132.37337 61.470768 0.65514064 -0.019453287 0.75525635
-21.290157 131.41129 62.653461 0.55430388 -0.063071154 0.82992119
-1.167482 137.70435 66.477638 0.91016567 -0.0052950885 0.41421062
-21.094057 129.40886 62.253006 0.52024508 -0.040898837 0.85303712
-3.2425263 138.04318 84.863678 0.99848139 0.029697707 -0.046398968
-1.3556864 134.66467 66.718185 0.77807355 -0.0084829964 0.62811589
-0.89823741 134.24167 65.731354 0.9975816 0.069335774 -0.0048447791
-20.929546 126.8494 61.880249 0.47407323 -0.10037464 0.87474537
-18.877151 127.65417 60.266998 0.95783567 0.091905259 -0.27222121
-19.375784 126.3821 61.248215 0.65506959 -0.070693471 0.75225413
-3.5265174 136.73 85.842003 0.70841891 0.020747961 0.70548719
-18.941208 123.962 59.761372 0.95814568 0.016603259 -0.28579944
-20.814436 124.97216 61.648224 0.46682936 -0.071223423 0.88147467
-19.305407 123.84216 60.744205 0.69863325 -0.082778752 0.71067512
-1.2476252 129.80811 66.077126 0.73331708 -0.053448394 0.67778265
-3.1913679 131.51764 85.537766 0.91453904 0.027356854 0.40357134
-22.042002 121.72038 79.564056 0.93773013 -0.013170204 0.34711501
1.0638391 -62.725235 74.183868 0.87644053 0.14537877 0.45903918
-21.96199 119.97106 79.981018 0.82164884 0.0767233 0.56480682
-19.580202 119.80661 60.545837 0.686333 -0.043785371 0.7259683
-0.58994663 124.10237 64.667892 0.97772098 0.049819492 0.20391129
-14.749466 154.1851 60.128212 0.14898847 -0.20662348 -0.96701044
0.85480118 -60.814091 74.187057 0.82622206 0.084163398 0.55702221
-19.02239 115.76141 60.101307 0.74632251 -0.020096209 0.66528112
-0.62788993 121.39549 64.9161 0.84222853 -0.049764559 0.53681898
-20.289267 115.13973 60.578457 0.53638744 -0.066619411 0.84133846
-18.722048 115.2161 58.845364 0.95832366 0.10641217 -0.26512653
-18.702692 112.88527 59.487667 0.72705269 -0.043843254 0.68518031
-1.9752117 120.06672 65.417923 0.10370888 -0.13661581 0.98518044
-21.255939 111.56973 61.06707 0.46865776 -0.090630397 0.87871838
-20.264359 109.29316 60.090412 0.56224835 -0.067952089 0.8241719
-0.35953605 116.12488 63.014801 0.96617651 0.086971775 -0.24277326
-18.54213 109.93418 59.057152 0.83394796 -0.048742078 0.54968637
-22.464787 110.26852 81.769096 0.62277371 -0.003874056 0.78239244
-18.799959 107.18375 59.013302 0.68998611 -0.017149357 0.7236194
-20.710995 105.93588 60.312279 0.39693922 -0.0598852 0.91588914
-19.355852 103.47063 58.942101 0.55967486 -0.19306156 0.80591029
-18.350904 104.83666 58.705784 0.66485715 -0.0083944276 0.74692333
-19.682005 101.89731 58.926041 0.41723558 -0.082057118 0.90508622
0.056715447 108.7025 62.232708 0.96767008 0.063905485 -0.24398907
0.14535232 105.84974 62.085007 0.99228948 0.064201191 -0.10601778
-20.188463 97.77652 59.526985 0.78040767 -0.041694783 0.62387931
-18.008698 98.140915 57.807014 0.47969767 -0.089234523 0.87288451
-19.377806 99.03315 58.59692 0.49891663 -0.046752218 0.86538804
-19.009642 95.100594 58.100086 0.59064829 -0.10692502 0.79981351
-19.989418 95.762238 59.143383 0.53332746 -0.059464533 0.84381628
-18.803089 94.040161 57.882885 0.52409047 -0.072876617 0.84853894
-17.384949 91.095413 56.765495 0.4568561 -0.08805082 0.88517207
-19.834867 91.330391 58.429565 0.49174309 -0.059917159 0.86867642
-19.100159 89.270569 57.508472 0.61454082 -0.058824219 0.78668886
-18.102324 87.518845 56.842834 0.50948608 -0.069455229 0.85767126
-2.3469121 96.579559 85.00515 0.97576064 0.0091960337 0.21864721
-19.472393 88.333588 58.066277 0.36742911 -0.086570449 0.92601377
-19.213945 84.522446 57.702583 0.58970714 -0.078635253 0.80377978
0.68880665 90.488258 60.545689 0.9816848 -0.036868729 -0.18691054
-17.607437 83.036583 55.90662 0.52155393 -0.10386956 0.84687215
-17.645521 80.808594 55.753525 0.50741661 -0.089970969 0.85699099
-2.0308747 90.78537 84.481468 0.99419677 0.0087288721 0.10722204
-18.116295 77.930382 55.655552 0.63553077 -0.063652128 0.76944727
-19.022593 77.900452 56.846153 0.33942887 -0.12738083 0.93196684
-2.290709 83.469269 85.123306 0.86216009 -2.2801483e-05 0.5066359
-18.328066 72.331917 55.657444 0.39410177 -0.18202414 0.90086132
0.92017823 81.266991 59.248558 0.93617189 -0.062728636 0.34590065
-17.437393 71.878181 54.735851 0.5393703 -0.10736176 0.8351965
0.91229624 79.228035 58.574532 0.95536602 -0.019271284 0.29479527
-18.353186 69.888664 55.341534 0.39022458 -0.14430135 0.90934151
1.0431943 75.428368 58.446865 0.86628425 -0.011282788 0.49942395
1.0074779 76.340385 57.478428 0.96366048 0.082632788 -0.2540282
-2.2133486 75.985451 85.222946 0.70913118 -0.016963078 0.70487249
0.71701509 67.695145 57.975239 0.4553467 -0.14893472 0.87776864
1.5466974 66.282173 56.792191 0.96263671 0.0061702346 0.27072591
1.8750824 53.96521 55.127422 0.83997756 -0.029398439 0.54182416
2.2224846 52.36747 54.202423 0.99808401 0.057744242 0.022221914
-1.7071319 54.85762 84.262833 0.93015844 -0.011802818 0.36696866
-20.485939 47.04533 80.451653 0.49212536 -0.033375844 0.86988425
2.3231678 48.373257 53.438625 0.99908596 0.038498543 -0.018574342
-2.0590949 51.888088 84.419052 0.77092695 -0.013300329 0.63678473
-1.4999475 48.996666 83.025589 0.99828935 0.015124763 0.056477644
2.7452016 35.616295 51.55695 0.91530138 -0.086109757 0.39345714
3.0493782 30.453085 50.294266 0.98737198 0.031082898 0.15533933
3.7060108 19.50316 48.113178 0.99577403 0.053729221 0.074479848
-1.1792063 22.016665 81.589478 0.98184758 -0.011025029 0.18935092
-1.1131934 20.577579 82.164131 0.97279209 0.013345812 0.23129523
-1.1717823 17.813261 82.308517 0.96486634 -0.016704893 0.26220974
-2.2137363 18.325205 83.450272 0.38708487 0.086705334 0.91795832
-0.061322819 -63.3531 75.297729 0.42608175 0.034705553 0.9040187
-5.3116674 13.289101 84.463585 0.19055471 -0.0065964954 0.98165441
-2.5190458 14.240077 83.451027 0.61923015 -0.086570568 0.78042269
-0.98143649 13.517814 81.415932 0.9536401 -0.0032973781 0.30093145
-1.6427621 10.955809 82.427582 0.69275099 0.0041722078 0.72116476
-1.2552477 10.306759 81.907341 0.97590977 -0.065571465 0.20808773
4.0140491 5.3532019 45.429821 0.87922537 -0.051757801 0.4735862
4.4130807 2.9167488 44.771584 0.99054217 0.044144843 0.12991282
-3.1299896 3.6633797 83.162788 0.47015378 -0.045495953 0.88141114
-1.4625434 2.6185389 81.685837 0.88226563 -0.015767654 0.47048774
-2.609405 1.1722341 82.487114 0.51660568 -0.072166041 0.85317671
-6.2544212 0.5919795 83.883293 0.16706389 -0.057891719 0.98424506
-1.5638109 -1.1623774 81.806267 0.71527559 -0.050800793 0.69699365
4.9615188 -9.2554197 42.372494 0.94985646 -0.0032733404 0.31266904
-1.293355 -4.1268349 80.78183 0.87757337 -0.020191344 0.47901693
-2.1236987 -5.3262277 81.633736 0.6192264 -0.013605348 0.78509456
-1.4081796 -7.6374431 81.153557 0.6538319 -0.026184492 0.7561866
4.6675739 -11.140745 42.374489 0.75956786 -0.095282435 0.64341116
5.2501054 -13.694656 40.94212 0.993209 0.032503858 0.11171133
4.8353963 -12.728216 39.919109 0.8784849 0.14332975 -0.45576403
-2.2588162 -9.6848583 81.676476 0.56200749 -0.080140218 0.82324064
-1.2995244 -10.116017 80.737305 0.85140568 -0.063746095 0.52061969
-1.7252278 -11.585585 80.884567 0.67556584 -0.052627429 0.73541898
5.2972732 -16.22403 40.273228 0.96145362 -0.010069933 0.27478272
5.4297299 -18.040293 39.65229 0.99898982 0.034052569 -0.02932138
-1.1369354 -20.767103 79.66539 0.87346268 0.025935968 0.48619983
5.8361411 -29.94713 37.505127 0.96485209 -0.017516641 0.262209
6.0151896 -31.893799 35.72578 0.95600092 0.1447477 -0.25516728
-0.27041566 -25.119852 77.628593 0.94582659 -0.0068947063 0.32459909
-1.555313 -25.928699 79.808029 0.66415602 -0.054422945 0.74561054
-0.17048375 -28.674437 77.130875 0.98507303 -0.017223625 0.17127319
-1.1104 -29.356377 79.058769 0.80864793 -0.050036386 0.5861612
-0.9847734 -32.742073 78.678101 0.73998392 -0.040944301 0.67137718
-0.43021837 -36.530254 77.437439 0.84594959 -0.046149276 0.53126216
-0.087619744 -37.944408 76.480156 0.94783676 0.024789093 0.31779084
-0.94986081 -39.495632 78.002769 0.67136616 -0.039125476 0.74009222
0.11641722 -40.847843 76.612991 0.89708269 -0.034984704 0.44047567
-1.9110678 -41.931595 78.459625 0.5517748 -0.10984122 0.82672811
-1.0540479 -43.891792 77.428177 0.66810477 -0.079255261 0.73983413
-0.047703482 -43.514919 76.077667 0.87726033 -0.025886502 0.47931641
-0.059064772 -46.80891 76.185272 0.80051923 -0.096652791 0.5914619
-0.92913789 -46.626736 77.187935 0.68494684 -0.079515867 0.72424108
-6.4185691 -49.527496 79.125587 0.1282337 -0.12214187 0.98419374
-3.9797614 -50.387703 78.419983 0.35822847 -0.10457219 0.92775905
-22.637127 158.01904 80.306778 0.22612433 -0.0056063319 0.97408229
1.8067074 56.723461 55.641537 0.77340883 -0.12254243 0.62195021
-22.711531 47.87215 81.540436 0.093476668 -0.048686493 0.9944303
1.4117837 35.434422 52.320965 -0.085585043 -0.20278148 0.97547668
2.7542658 33.417145 50.673603 0.97460735 0.051335402 0.21795702
4.9383092 -19.400112 40.633015 0.71271241 -0.13291611 0.68874836
-3.8252943 147.10803 85.930588 0.77583563 0.055475768 0.62849146
-0.26453233 108.93554 63.618595 0.73820466 -0.051078193 0.6726402
-5.1830883 6.1126289 83.97126 0.33435833 -0.029830551 0.94197387
-0.9189043 -17.270498 79.533463 0.87866819 -0.076056451 0.47133607
5.310142 -22.431923 39.663734 0.55065048 -0.23674437 0.80046004
-22.210798 142.25372 79.855804 0.95752436 0.049182929 0.28412694
-23.250149 143.69281 81.31604 0.60686475 0.046569973 0.79343957
1.6574348 -65.475075 74.380959 0.67454636 0.13936535 0.72495836
-2.3394592 26.070078 83.128571 -0.14570895 -0.0070554093 0.98930234
-1.223357 24.215137 82.374168 0.83136344 -0.0095422054 0.55564713
-22.721415 120.77476 81.363609 0.77239078 -0.011720646 0.63503951
6.7515159 -41.231544 33.907784 0.91392857 0.1775706 -0.36497027
6.0078344 -27.706411 37.60321 0.99856538 0.011262353 -0.052347552
0.4694972 -45.844921 75.378105 0.96859276 -0.005478133 0.24859197
0.40166911 -47.400867 75.398636 0.96545887 -0.18734817 0.18107934
-8.2367992 -66.245285 21.800985 -0.12183672 0.10781396 -0.98667723
6.9435964 -43.953861 33.351624 0.93020248 0.15240243 -0.33391148
7.0036006 -45.571037 32.067123 0.86817831 0.20905091 -0.45007133
5.9990149 -46.135052 30.551783 0.80295855 0.18320876 -0.56717891
0.43109027 -51.502613 75.346786 0.8101303 -0.0019538342 0.58624655
0.74377435 -52.424892 73.978088 0.99595755 0.052175932 0.073117837
6.966001 -47.948097 31.142843 0.88063413 0.17717366 -0.43942362
7.3066263 -50.255611 31.47941 0.93158001 0.15605444 -0.32833767
6.6957855 -49.669827 30.009283 0.85100639 0.19571891 -0.48732156
1.0378234 -54.896606 73.412849 0.97000265 -0.018891001 0.24235922
1.0351934 -56.453423 73.332603 0.99881947 0.039577071 0.028165389
7.7564273 -53.504116 30.710024 0.8873291 0.19579411 -0.41750658
6.9009619 -52.61211 29.415245 0.84170759 0.19016989 -0.50533527
1.0597579 -58.786304 73.397118 0.95032972 0.043863412 0.30813873
6.9826655 -47.781677 32.178822 0.99732852 0.067894034 -0.026949311
-8.1196842 -69.642761 21.30245 0.19230497 -0.038926553 -0.98056287
-10.729699 -66.269745 23.477556 -0.88614714 0.19070625 -0.42234394
-10.517637 -76.779846 25.298615 -0.19758436 0.16365522 0.96652848
-3.9194028 151.35759 85.675972 0.76912677 0.047393154 0.63733655
-3.5020092 151.72656 83.880333 0.93621081 -0.0044789007 -0.35141021
7.4566727 -58.036739 30.107187 0.89282423 -0.056522287 0.44684452
7.7896094 -55.351181 30.169163 0.96605772 0.062367041 -0.25068474
-3.3047616 141.07809 85.63929 0.86845541 0.0077825575 0.49570611
-3.0794454 134.06616 84.900505 0.98447323 0.028747777 0.17316486
-1.2912375 133.57149 64.343719 0.91434026 0.047116283 -0.40219635
-3.1351318 132.12592 84.480682 0.89718926 0.026770724 -0.44083422
-0.91000241 129.42651 64.833 0.9975456 0.068648785 -0.013792832
-2.92278 125.84364 85.647896 0.92950475 0.01459346 0.36852139
-0.83172822 126.29364 65.21759 0.89041132 -0.0081756376 0.45508325
-2.9324212 123.92342 84.305885 0.95842534 0.0085553648 -0.28521523
-0.63619757 122.896 63.467018 0.91711175 0.07751289 -0.3910214
-0.425441 118.06451 64.393326 0.90516829 -0.010929438 0.42491284
-2.5304363 113.85708 85.026253 0.98197114 -0.0090360623 0.18881473
-21.491646 107.35394 80.300163 0.86078215 -0.049532004 0.5065577
-0.51284349 114.75245 64.256439 0.89810532 -0.028432257 0.43886054
-0.10500935 113.10242 62.765854 0.99592376 -0.011173027 -0.089504793
-3.0812635 112.03539 86.179893 0.83497536 0.022243842 0.54983741
-2.4795876 108.12717 84.863777 0.99792874 0.046405427 -0.044549696
0.2986964 103.28034 62.154045 0.9985742 0.016460905 0.050780337
-2.2940595 98.024887 84.303436 0.99225974 0.0030111419 -0.12414301
-2.8333774 101.54797 83.131927 0.79959208 0.038216066 -0.59932619
-2.1400771 94.321915 84.477348 0.99858624 0.029575195 0.044170067
-0.26115468 89.865234 57.93668 0.83388907 0.12375133 -0.53787977
-2.3431349 89.693237 83.583504 0.88483608 -0.024137579 -0.4652769
0.73083037 88.530815 60.031242 0.99038732 0.046986513 -0.13009737
-2.121084 87.273888 84.137192 0.99379086 0.019358603 -0.10956673
-2.6337295 86.016739 82.707092 0.83292985 0.092234865 -0.54563785
-2.0690722 79.257797 83.440857 0.97687596 0.005814583 -0.2137277
-2.0051372 73.483551 82.94529 0.92279977 0.041840784 -0.38300112
-2.0214798 71.917229 84.997444 0.86554062 -0.015645746 0.50059438
1.3240944 72.998108 57.559803 0.99617755 0.025289532 -0.083610006
1.3642019 69.680969 57.261822 0.92778528 0.023635155 0.37236521
-1.7603596 64.1063 84.064461 0.98593807 0.0036163041 0.16707185
-2.1498952 64.804848 82.183273 0.93534631 0.03427032 -0.35206947
-1.6298758 61.115448 83.258209 0.99879062 0.0054771882 -0.048860732
-1.7234193 58.387329 83.636505 0.98672712 0.0099537689 0.16208158
1.182162 59.582253 53.46217 0.85164624 0.11432547 -0.51149607
2.0306995 57.51754 54.775036 0.98432606 0.10988117 -0.13794319
-2.0362623 54.271271 81.595222 0.94397509 0.025352526 -0.32904145
1.8036288 55.328266 53.585808 0.91969675 0.1166632 -0.37489685
-1.6131102 52.035149 82.176918 0.98018938 0.043810759 -0.19315639
1.9355398 47.333149 51.499241 0.906169 0.14029241 -0.39896846
2.4136713 45.186089 52.671047 0.99446708 0.060165044 -0.086112589
2.049114 43.167717 50.657455 0.85766286 0.10398738 -0.50358814
-1.3787569 41.011589 83.222099 0.96643817 0.0043431153 0.25686261
-1.5276606 39.428841 81.387283 0.96367371 0.023951294 -0.26600617
2.4492788 41.739346 51.034916 0.89699405 0.12442199 -0.42417079
-1.3636235 37.167023 82.314461 0.99377769 0.00039416627 0.11138155
2.7644184 37.576096 51.50647 0.99615753 0.020980977 0.085030213
-1.1979204 29.978788 82.396599 0.99731863 0.0065289009 0.072890744
2.9747851 31.954889 49.495335 0.95771015 0.10345456 -0.26849264
-1.0775504 27.322893 81.347389 0.98793316 0.05383173 -0.14522445
3.0939894 29.150738 49.165596 0.98009056 0.10219698 -0.17023017
2.4930961 30.523479 48.166008 0.84016335 0.13977569 -0.52401173
3.2693393 25.575069 48.562225 0.97244513 0.077901877 -0.21973108
3.1345541 22.296598 47.129295 0.87080115 0.1246497 -0.4755711
-1.2711909 17.169783 79.382812 0.92956561 0.0098541109 -0.36852488
3.0753875 19.504599 46.308857 0.86207837 0.10117032 -0.49657378
3.527833 20.797537 47.291534 0.96110278 0.10692121 -0.25465506
-1.1504358 15.774368 81.888969 0.9568364 -0.026238071 0.28944027
3.8333125 14.371409 46.962711 0.96151704 0.033448342 0.27270168
3.7140851 12.830237 45.662941 0.9056083 0.11023408 -0.40953884
-1.0540804 7.6744761 78.852448 0.99967068 -0.014236339 0.021351507
4.1772213 7.8612771 45.577671 0.99625921 0.038083095 0.077570789
-0.96251756 4.3128486 80.446297 0.99576443 0.0116094 0.091205075
3.3374207 7.6164908 43.363823 0.84497154 0.15704973 -0.5112325
3.4494205 4.828249 42.58152 0.82077438 0.16338012 -0.54739058
-0.87077761 1.0985885 78.585709 0.96472585 0.082279317 -0.25006813
4.1791105 6.0004168 44.446621 0.96014118 0.10523449 -0.25894892
-0.82960367 -0.25124341 79.77832 0.98718375 0.011999092 0.1591358
4.3978767 0.88913435 44.020168 0.9696312 0.05963501 -0.23718958
4.6643939 -1.1432228 43.454494 0.94644165 0.14350443 -0.28923139
4.7069321 -3.2325451 43.094177 0.96321779 0.10154843 -0.24879582
4.8578115 -4.5601406 42.466091 0.99431658 0.060829196 -0.087374963
3.9693975 -6.1228805 40.67968 0.8544243 0.16857143 -0.49147001
-0.82279968 -10.818847 79.551498 0.9696852 -0.063618287 0.23593074
4.5400405 -8.4301357 40.762283 0.92162389 0.1306354 -0.36543649
-0.54186153 -13.88218 76.968819 0.9307031 0.075203173 -0.35796109
4.807436 -10.935947 40.49247 0.96464735 0.1089151 -0.2399855
-0.43112874 -15.224434 78.464844 0.99043381 0.016763259 0.13696685
4.913271 -16.180424 38.906425 0.91459841 0.13336414 -0.38173789
4.8247609 -18.456923 37.859764 0.88299018 0.14888878 -0.44515213
-0.48913082 -22.35882 78.288033 0.93235523 -0.010179625 0.36140028
-0.29270864 -21.698294 76.925423 0.99777937 0.049837727 -0.044188362
5.4233751 -21.982346 37.882111 0.9630177 0.099777736 -0.2502825
-0.23703742 -25.791611 76.320526 0.98209888 0.060979821 -0.17822233
5.6505084 -30.484861 35.274544 0.91602498 0.12220236 -0.38205341
0.19173077 -36.213627 75.374229 0.9986462 0.033665102 0.039653353
6.2318234 -33.493767 35.683914 0.97523248 0.13371554 -0.1761867
6.293859 -35.152096 34.795418 0.9606542 0.10313813 -0.25788793
0.48021004 -42.373985 74.435585 0.98192418 0.028270233 -0.18715152
-0.3516745 111.88822 63.631145 0.87516981 -0.025954034 0.48311907
-17.435976 -60.691715 71.239838 -0.95121372 0.0082584443 0.30842212
-3.4737196 137.89531 83.780556 0.79607612 0.018130252 -0.60492498
-2.0648324 137.94089 63.982056 0.78099138 0.078429356 -0.61959773
-19.293367 134.83009 60.649715 0.95512342 -0.022237409 -0.29537204
-19.312946 132.46005 60.686352 0.99368703 0.023923617 -0.1096068
-4.2391453 131.74644 82.78624 0.66157138 0.032330219 -0.74918497
-1.3372281 135.75859 64.723686 0.91191983 0.07290902 -0.40383941
-3.2034957 129.44991 83.848495 0.89589947 0.023377934 -0.44364133
-19.398485 129.2381 61.370346 0.72935039 -0.0017388071 0.68413812
-2.459722 133.92467 63.016926 0.74961793 0.096751012 -0.6547612
-19.438673 129.972 59.963985 0.86270684 0.10250024 -0.49520755
-1.3887266 130.8539 63.712708 0.85240781 0.099512585 -0.51332074
-19.918308 120.74084 58.099838 0.55483246 0.11674716 -0.82372993
-18.938997 121.7802 59.952549 0.99957091 -0.0026934734 -0.029167773
-0.90975887 119.25989 62.355228 0.921826 0.08021491 -0.37921283
-18.385223 111.73612 58.421692 0.99719787 0.073423564 -0.014335797
-0.80538666 112.91304 61.230915 0.89232689 0.079155415 -0.44439524
-17.742752 105.13958 56.377834 0.52939028 0.43379307 -0.72908807
-17.424694 104.83774 57.501747 0.84563291 0.22950475 0.48190501
-1.9575205 106.53795 58.680099 0.65535057 0.16267529 -0.73759907
-0.28922021 104.32894 60.600288 0.84523183 0.076120824 -0.52895075
-2.6170857 96.562294 83.098076 0.8543793 0.031094795 -0.51871878
-2.7083721 98.815048 56.739819 0.69379503 0.10430504 -0.71257901
-7.849134 102.186 79.703781 0.36531365 0.057818282 -0.92908716
-0.048253361 86.352386 57.612564 0.8308993 0.11155568 -0.54512537
-1.416732 87.406921 55.940353 0.76580232 0.13908245 -0.62785572
0.54792297 74.808777 55.897408 0.85280055 0.12325061 -0.50748456
1.0954454 71.296951 56.070705 0.91952521 0.098383881 -0.38051814
-2.1521797 54.132988 48.099274 0.63613671 0.15625885 -0.75558805
-2.0959353 30.925049 79.251015 0.7940315 0.057781406 -0.60512418
-1.2791718 18.518972 79.430672 0.93612397 -0.035542216 -0.34986934
-1.2155471 15.739957 79.626213 0.90663171 0.047116835 -0.41928393
-2.411041 12.756138 78.117844 0.45493233 0.083714522 -0.88658243
-1.0219774 11.375096 79.428421 0.93631291 0.050860673 -0.34746414
-0.44312122 -18.844936 77.775024 0.98231792 0.032451864 0.18438648
-0.65769345 -41.478485 73.160103 0.36712229 0.18055932 -0.91247988
0.40878999 -56.306915 71.848984 0.69972718 0.014973148 -0.71425325
0.73129708 -59.448906 71.535149 0.63678956 0.13952574 -0.75830847
0.77489781 85.869949 59.239529 0.98469388 0.086313024 -0.15142027
6.0369511 -36.127117 35.919044 0.98142898 -0.043217275 0.18689403
-0.42678142 101.63705 60.069202 0.85242254 0.073792361 -0.51762015
-1.7399486 36.806637 80.235092 0.88596255 0.051293075 -0.46091151
-0.93522137 9.2576218 79.725113 0.99505955 0.0067837583 -0.099047035
-6.8415899 135.2513 81.190598 0.39651003 -0.016029282 -0.91789043
-3.3444273 136.70471 62.327934 0.61002773 0.07709381 -0.78862071
-20.262928 135.77081 59.515182 0.60156411 0.089178652 -0.79383111
-5.8501358 129.44731 81.700203 0.51579922 0.0086886315 -0.85666549
-3.4542623 133.55881 61.971985 0.58131474 0.10504402 -0.80686986
-2.7156761 129.71596 61.958847 0.69226068 0.11263999 -0.71280253
-3.4163046 125.7002 83.301605 0.77809376 0.021137554 -0.62779236
-20.548794 127.70427 58.628765 0.44668934 0.092976123 -0.88984495
-4.3236337 122.51444 82.506424 0.68505114 0.013308541 -0.72837347
-2.399035 125.53036 61.546535 0.63588738 0.10444491 -0.76468188
-19.618177 125.93385 59.036423 0.56882352 0.095891096 -0.81685042
-20.081427 123.24382 58.370529 0.47894299 0.12892641 -0.86832684
-3.4839263 121.04744 60.415997 0.21689323 0.17773873 -0.95987827
-1.7066785 120.48708 61.535194 0.69897366 0.13654737 -0.70199054
-18.996647 118.20415 58.501255 0.85361737 0.083796836 -0.51411635
-1.2907295 116.80746 61.258682 0.74726164 0.11383238 -0.65470773
-19.900259 115.24964 57.480202 0.53070289 0.12677288 -0.8380233
-1.6980995 112.73737 60.142551 0.68032962 0.10808282 -0.72489297
-20.591805 113.32406 56.92815 0.26650164 0.17102382 -0.94853979
-18.718374 112.05073 57.637875 0.72597533 0.15009122 -0.67114264
-18.450905 109.0878 57.552502 0.72542268 0.12056004 -0.67766309
-1.6328009 110.07722 59.929485 0.76142818 0.11493992 -0.63797802
-19.267017 106.46886 56.215511 0.46357083 0.34701863 -0.81527919
-4.870296 93.727814 80.936852 0.56566834 0.037535381 -0.82377815
-3.9522026 93.286949 54.690498 0.62374049 0.14238799 -0.76855284
-5.9278908 93.64505 53.371124 0.48013154 0.15970416 -0.86253595
-9.4704227 92.608864 51.638981 0.22774503 0.15666652 -0.96103477
-4.7997866 90.409607 53.493011 0.57286721 0.1552656 -0.80480784
-7.5569615 91.016785 51.940674 0.41476816 0.17115146 -0.89368588
-8.2972479 85.601784 50.774086 0.27154756 0.1731126 -0.94672805
-6.1496191 86.962547 51.964962 0.48386535 0.16090827 -0.86022258
-7.3787103 87.693596 51.541195 0.31122246 0.1545867 -0.93767989
-2.2699356 84.688736 54.339851 0.73494464 0.13003817 -0.66554224
-4.3633919 81.353226 51.974995 0.53931051 0.17504911 -0.82371235
-3.6327643 78.253677 51.949974 0.60604507 0.14807221 -0.78152668
-2.9688971 76.267113 52.062931 0.65275317 0.15466534 -0.7416144
-3.3045664 73.085938 51.197144 0.62725818 0.14107576 -0.76592743
-4.5581026 74.700264 50.439739 0.5395382 0.15154018 -0.82821143
-6.5564704 73.712837 49.218967 0.4298324 0.15411912 -0.88965809
-4.0767622 71.195175 50.241417 0.53021818 0.1735761 -0.82990366
-7.2591949 70.212135 48.277794 0.24997257 0.1733467 -0.95260936
-4.4566231 68.646935 49.363953 0.49509403 0.16883783 -0.8522768
-7.6429935 66.639442 47.574547 0.25161424 0.17208403 -0.95240611
-6.9768109 64.154991 47.29652 0.32776263 0.18307434 -0.92685241
-4.8110461 63.079823 48.03215 0.46609789 0.1897013 -0.86415637
-3.4809084 48.4459 79.013489 0.65148652 0.06845931 -0.75556517
-7.3409834 43.036987 76.740372 0.40466875 0.006814471 -0.91443795
-6.3126731 53.012909 45.421494 0.28927612 0.16029511 -0.94372922
-2.2183654 51.447327 47.513283 0.59727913 0.16572049 -0.78472567
-3.5360463 49.762642 46.074795 0.55180645 0.17082386 -0.81628966
-5.7723684 49.076328 44.786613 0.3499611 0.19441007 -0.9163689
-4.3984694 47.403175 44.954063 0.48324949 0.19070573 -0.85445958
-2.8255591 47.29417 46.055458 0.5878579 0.17504977 -0.78979784
-5.322041 45.099068 44.153622 0.44102961 0.17444487 -0.88037598
-2.8347085 33.180378 78.542671 0.71955442 0.034647807 -0.69357121
-2.5753419 43.348888 45.320343 0.55724216 0.19326206 -0.80754632
-4.7728138 42.34211 43.820122 0.37832302 0.20115383 -0.90355349
-3.7867587 38.850574 43.500072 0.45871559 0.17007035 -0.87215602
-5.5670557 39.407997 42.787262 0.28168878 0.20585413 -0.93716359
-0.40266263 37.718945 45.901157 0.71516192 0.15411431 -0.68175685
-2.1791294 35.832718 44.056252 0.59939325 0.17397627 -0.78131938
-3.9441068 20.196129 77.815666 0.049442649 -0.18339586 -0.98179495
-1.194613 20.533854 79.615654 0.93934894 0.0088863233 -0.34284791
-2.6567724 19.990118 78.109154 0.55286801 -0.10122445 -0.82709765
-4.912787 33.296646 41.940166 0.28560466 0.18036357 -0.94122207
-3.0427454 18.407431 78.290962 0.30553031 -0.13992119 -0.94184566
-5.3208051 19.242983 78.329399 -0.048681397 -0.19939537 -0.97870916
-2.7941291 32.829952 42.817402 0.53285342 0.16522533 -0.82992035
-4.3862505 31.161898 41.717751 0.34227625 0.18866876 -0.92046243
-1.5407726 29.593712 43.005123 0.61868495 0.21012278 -0.75701869
-3.4377859 29.401257 41.690205 0.44588137 0.18644579 -0.8754586
-2.4096451 16.687334 78.635895 0.32240272 0.045025066 -0.94553125
-3.7472641 14.413251 78.253448 -0.039290234 0.09101104 -0.99507451
-3.6710517 12.413497 78.039917 -0.28399968 0.083925784 -0.95514429
-0.3797543 24.429146 42.906311 0.68919492 0.14466484 -0.7099877
-1.2712275 13.424613 79.355278 0.91088307 0.058903445 -0.40843904
-3.7797701 10.416523 77.911354 -0.239567 0.05502528 -0.96931928
-2.5786889 10.563293 77.935417 0.31337085 0.10619552 -0.94367439
-3.0524657 8.4016056 77.618889 -0.03713033 0.066854432 -0.99707162
-1.6222649 8.531436 78.098572 0.57332122 0.09883564 -0.81334752
-2.9129002 6.2563667 77.472733 0.079761058 0.10596009 -0.99116629
-1.1399174 18.558521 40.768295 0.62837112 0.16565841 -0.76007044
-5.4587169 18.279062 38.631062 0.21693216 0.21139014 -0.95302391
-3.3766124 16.897795 38.983562 0.49065992 0.1973491 -0.84870857
-0.28441387 13.789768 40.319828 0.63739461 0.19406076 -0.7457
-3.5798113 14.605043 38.348808 0.35738242 0.19724572 -0.91289204
-2.4841239 11.800805 38.287277 0.47549689 0.20013371 -0.85664999
-2.1330488 8.8519316 37.822445 0.51382387 0.18087304 -0.83861196
-3.0687177 -13.056854 32.301483 0.28675678 0.24611114 -0.92585087
-2.6017392 -11.090058 32.968475 0.28750801 0.23231028 -0.92917764
-3.0838251 46.248978 79.289062 0.7191869 0.05881859 -0.69232255
-18.732679 117.26809 59.150562 0.99312043 0.082858816 -0.082741767
-18.218266 107.28236 57.604671 0.97694308 0.21349201 -0.0018276726
0.6025129 -52.071281 72.195145 0.72921032 0.13325137 -0.67119032
-26.369543 93.092987 82.586876 -0.66271478 -0.04435176 0.7475574
-20.143751 132.50034 59.34837 0.70789623 0.022078022 -0.70597124
-2.6920557 118.0445 60.232605 0.42951533 0.11953986 -0.89511269
-20.881496 117.58068 57.363052 -0.014791774 0.10530563 -0.99432993
-20.226488 110.73067 56.573765 0.22245222 0.11330316 -0.96833748
-2.8070972 109.60608 59.100498 0.0028433739 0.20114322 -0.97955769
-19.770302 104.50925 55.197037 -0.043777972 0.28308821 -0.95809424
-17.351963 103.59328 55.895874 0.51180679 0.3708781 -0.77492142
-6.3077574 101.69639 55.322605 0.0091913454 0.73657775 -0.67629039
-4.90239 100.23598 54.998657 0.52537835 0.22992878 -0.81921321
-7.4620347 100.54541 54.119694 0.17463467 0.63608795 -0.7515949
-7.5306668 99.032326 53.251957 0.35361996 0.25618652 -0.89962292
-7.6665449 96.067268 52.856117 0.44422364 0.1144994 -0.88856924
-9.3167982 96.675278 52.204792 0.16827622 0.16678099 -0.97152823
-12.823539 94.219063 51.760075 -0.098312743 0.12902336 -0.98675609
-9.5495214 90.483597 51.309196 0.1998786 0.1562112 -0.96728826
-12.056989 91.603645 51.288704 -0.032135483 0.16367267 -0.98599112
-11.284687 89.032654 50.799698 -0.037178602 0.15056789 -0.98790032
-9.8543196 87.418129 50.750904 0.15385284 0.15489225 -0.97587788
-10.538557 84.630981 50.215786 0.046042293 0.15962687 -0.98610312
-12.504457 82.756577 49.984859 -0.15944703 0.14252099 -0.97686458
-11.406447 78.324493 49.295265 -0.085349903 0.14706266 -0.98543793
-12.867555 79.925247 49.704784 -0.19612023 0.12306945 -0.97282612
-8.7955809 78.070999 49.348965 0.16920641 0.1707833 -0.970671
-9.1107779 74.436066 48.616837 0.18553141 0.17370321 -0.9671635
-7.3604059 71.425903 48.483673 0.3061907 0.15363988 -0.93949032
-10.571791 71.922249 48.112858 -0.029250482 0.13811424 -0.98998427
-11.795407 70.173424 47.988106 -0.15339443 0.15306088 -0.97623897
-10.73336 68.366447 47.549885 -0.0088798553 0.17846029 -0.98390704
-10.02494 65.745522 47.11554 -0.041066807 0.15841611 -0.98651803
-9.542964 62.312859 46.503956 0.0071239104 0.17824875 -0.98395967
-6.8651381 60.908039 46.711914 0.32062748 0.18104316 -0.92974263
-8.4288797 59.781803 46.167046 0.078474142 0.18015829 -0.98050237
-11.316757 58.63015 46.049126 -0.16424243 0.16642396 -0.97227949
-6.6370654 58.473671 46.288998 0.33493289 0.18818243 -0.92325908
-6.3463926 56.003258 45.820309 0.30370677 0.18957084 -0.93371576
-9.50669 56.619198 45.468647 -0.005824388 0.18400064 -0.9829089
-10.32954 53.39283 45.003613 -0.16350548 0.14881556 -0.97525376
-7.645175 53.161636 45.017937 0.12407413 0.1721098 -0.97723269
-8.7542582 51.12307 44.494762 0.056482784 0.1431631 -0.98808604
-10.853893 50.025669 44.596966 -0.14660436 0.16063689 -0.97606504
-8.8757029 46.706924 43.770023 -0.057618089 0.18573895 -0.98090833
-9.3233747 42.771301 43.103138 -0.14656816 0.1711348 -0.97428471
-10.060618 38.683949 42.471481 -0.14329669 0.16587056 -0.97568077
-7.8982077 41.648335 42.890686 0.10263004 0.18981062 -0.97644204
-7.134973 37.880444 42.162926 0.041206397 0.18626419 -0.98163521
-6.4886851 36.573044 42.060757 0.24878605 0.16473857 -0.95444572
-6.7284193 30.478067 40.872356 0.16204226 0.19257683 -0.96781009
-5.3511653 26.863743 40.406773 0.26303953 0.18869203 -0.94615299
-7.5284934 25.047665 39.835411 -0.047520958 0.17043076 -0.98422307
-6.8923659 15.221973 37.82423 -0.037265886 0.17634273 -0.98362309
-4.5916901 13.494889 37.868042 0.24197163 0.21592933 -0.94595152
-10.102894 13.585879 38.202587 -0.29588172 0.15638559 -0.94233626
-9.197998 11.892238 37.69709 -0.25600919 0.16917962 -0.95175499
-4.9191394 11.993283 37.450291 0.16772065 0.19535561 -0.96628469
-7.6211114 12.289402 37.417999 -0.097537838 0.18334849 -0.97819716
-5.9385037 10.078609 36.929695 0.042651389 0.21671499 -0.97530276
-3.6304767 9.6085968 37.292759 0.29424682 0.20163162 -0.93421811
-5.9057889 7.5698872 36.280682 0.11418743 0.192679 -0.97459525
-6.0889492 5.0871015 35.907787 0.10425927 0.18398401 -0.97738421
-4.3134933 2.4314251 35.540436 0.13017879 0.21362524 -0.96820337
-2.3583739 3.3099051 36.368023 0.40336752 0.21524277 -0.88936222
-4.8739643 -0.35469767 34.871395 0.13960317 0.22348063 -0.96465909
-5.8426461 1.1448245 35.110752 -0.085551158 0.21952945 -0.97184759
-7.4958358 1.9500357 35.422531 -0.20179346 0.19758098 -0.95929193
-4.4496627 -3.3092651 34.130535 0.11675953 0.21510993 -0.96958488
-3.5643337 -5.1603637 34.014439 0.24620174 0.18981817 -0.95044917
-4.357933 -12.639232 32.164284 0.047969736 0.23247255 -0.97141927
-4.7042418 -14.491927 31.789104 -0.01215866 0.199109 -0.97990191
-2.1784866 -16.077372 31.738634 0.2767731 0.20967485 -0.93778092
