# .PCD v0.7 - Point Cloud Data file format
VERSION 0.7
FIELDS x y z normal_x normal_y normal_z
SIZE 4 4 4 4 4 4
TYPE F F F F F F
COUNT 1 1 1 1 1 1
WIDTH 722
HEIGHT 1
VIEWPOINT 0 0 0 1 0 0 0
POINTS 722
DATA ascii
-2.6541629 -25.884323 -35.242096 -0.73386645 0.67512649 -0.07512825
-2.6528826 -25.464186 -33.652493 -0.75688797 0.64720643 -0.090798765
-3.6731341 -26.602613 -31.35116 -0.78501254 0.61060262 -0.10449769
-30.099262 -12.065203 20.562277 -0.8390559 0.53858918 -0.076856688
-30.272627 -12.410029 22.452074 -0.86375654 0.50164038 0.047765512
-25.618958 -15.737418 52.193874 -0.87890142 0.42363551 0.21923766
-3.734478 -27.061026 -35.263607 -0.83799106 0.5418722 -0.064385146
-19.897793 -18.28055 68.549408 -0.84491897 0.40592632 0.34833267
-4.2145157 -28.345922 -36.741493 -0.83293355 0.55227792 -0.034797356
-29.880424 -15.997402 37.331547 -0.88293618 0.42301118 0.20367916
-16.986174 -21.956514 -23.106199 -0.82776397 0.53825027 -0.15840949
-26.48245 -17.255005 51.318993 -0.90086716 0.39736438 0.17475675
-20.351461 -20.681013 68.980156 -0.95357352 0.27721605 0.11768048
-31.93092 -15.446226 19.271084 -0.90585196 0.41511065 -0.084353454
-27.44047 -19.540026 51.248573 -0.92932767 0.31597418 0.19107683
-4.8802567 -30.36227 -51.071651 -0.80428678 0.58640426 -0.096191302
-5.0985055 -30.050392 -47.512615 -0.81825835 0.55357075 -0.15496029
-17.866638 -25.198416 -29.642048 -0.64514053 0.72018278 -0.25520682
-6.3604779 -32.198647 -47.695702 -0.78911257 0.60642225 -0.097741649
-33.064098 -18.226543 19.93372 -0.89141434 0.45275262 0.019886091
-30.822283 -18.579914 37.933506 -0.92080075 0.33967021 0.19170336
-20.766531 -25.183233 71.362747 -0.87167501 0.14871715 0.4669753
-43.194576 -59.805527 -201.87743 -0.6679064 0.74416977 0.010600429
-44.236893 -60.165985 -214.49217 -0.81947428 0.57104343 0.048696574
-32.890614 -17.965996 18.537188 -0.83179533 0.55508238 0.00023024154
-31.564339 -18.838274 34.715565 -0.93110162 0.34060514 0.13052914
-27.368195 -20.989878 53.726639 -0.91637665 0.30487129 0.25943664
-43.257767 -59.488731 -208.36926 -0.75098836 0.66018516 0.01311665
-42.683502 -59.169235 -205.84821 -0.68983024 0.72155929 0.059045732
-21.244957 -23.856295 69.321304 -0.96413183 0.23303981 0.12705262
-42.626415 -59.241047 -200.97171 -0.44780263 0.89196622 -0.062201619
-31.731987 -20.874249 37.819447 -0.92737591 0.31066135 0.20847885
-21.422552 -25.145802 69.916626 -0.90742493 0.19665624 0.3713575
-43.221592 -60.071053 -187.23169 -0.82863426 0.55824888 -0.041514795
-21.435165 -27.689413 71.150772 -0.84863073 0.15675724 0.50522584
-19.600891 -24.77879 73.135963 -0.82520908 0.11689088 0.55259973
-32.715611 -23.050758 36.607101 -0.94774836 0.21061915 0.23960932
-19.440474 -28.721298 -43.127422 -0.51002079 0.84905159 -0.13780497
-7.5823154 -36.04982 -70.522896 -0.77754229 0.62711161 -0.046465579
-8.0857162 -37.444321 -75.158012 -0.67967349 0.73000532 -0.071666889
-8.0061445 -37.018627 -70.940269 -0.88046581 0.47410598 0.0018684921
-28.759388 -25.188091 53.425301 -0.92218959 0.26611146 0.28062648
-21.170671 -31.148401 -47.695858 -0.95864463 0.24634349 0.14253189
-29.391602 -26.559349 52.13726 -0.94217509 0.22294037 0.25020698
-8.2777615 -37.433674 -73.404282 -0.78477502 0.61618382 -0.066676408
-8.8235445 -38.816772 -73.145737 -0.83118558 0.55588979 -0.010814143
-8.8057604 -38.287514 -71.674355 -0.92872632 0.36813864 0.044060554
-29.578333 -28.058422 52.262856 -0.9602505 0.19097131 0.20359004
-22.100115 -31.025587 71.081863 -0.82412523 0.14673024 0.54707211
-29.3263 -29.081739 54.411484 -0.92808753 0.20648922 0.30986401
-22.313873 -33.666058 71.058418 -0.86542648 0.17935182 0.46783525
-6.8243628 -27.213324 86.002678 -0.61188936 0.068473309 0.78797394
-30.011063 -30.443224 52.858665 -0.93184978 0.21896672 0.28932619
-22.541248 -35.038555 70.543076 -0.95139128 0.23316526 -0.20121782
-21.423763 -34.812405 72.728241 -0.81149346 0.12944691 0.56984365
-29.120573 -61.28072 -213.91859 -0.68416274 -0.71893251 0.12270833
-22.936668 -35.842663 71.480911 -0.85566998 0.3232781 0.40412909
-24.285484 -36.469147 -63.92004 -0.97893637 0.10935634 0.17240869
30.704119 -23.390636 43.204861 -0.7859444 -0.28785607 -0.54720211
-29.566792 -61.050278 -212.79922 -0.65226436 -0.75701052 0.038552593
-22.840994 -37.411751 -108.95759 -0.22839701 0.97229469 -0.049778622
-20.277773 -37.141541 -109.07031 -0.051414754 0.97732127 0.2054254
-20.77644 -38.074642 -107.09073 0.016510228 0.90098852 0.43352866
-11.728292 -42.966076 -96.994064 -0.50110537 0.86388808 -0.050899018
-24.556408 -36.421703 -67.437218 -0.88112444 0.47275621 0.011011011
-23.827385 -35.560017 -65.04509 -0.64653939 0.76212895 -0.033856906
-10.915641 -42.752712 -98.91349 -0.20710373 0.97530103 -0.076784857
-23.133406 -38.02919 -111.97301 -0.31426409 0.93042511 -0.18853945
-24.635939 -38.023518 -107.50346 -0.22045152 0.91978443 0.32465044
-12.250242 -43.440338 -99.105782 -0.37075552 0.91232508 0.17379075
-14.991403 -43.606644 -101.14495 -0.18169114 0.89139992 0.41520423
-25.591856 -39.001369 -110.45698 -0.5045253 0.85382986 -0.12817501
-26.285175 -39.108593 -106.34492 -0.52931738 0.84320134 0.09399204
-13.957371 -43.917793 -99.612274 -0.16011471 0.97392029 0.16075614
-17.095478 -44.008389 -100.32668 -0.042743366 0.94787091 0.3157748
-44.73386 -61.58194 -205.10881 -0.84797198 0.52873099 0.037243485
-26.631205 -39.613457 -105.0614 -0.35169125 0.85745728 0.37560645
-26.330109 -39.644207 -112.19981 -0.57627237 0.81023127 -0.10693656
-27.895674 -42.189854 -86.16861 -0.92314464 0.38192838 0.043984186
-27.871387 -41.934944 -88.24662 -0.76176298 0.64781982 0.0068296734
-27.918674 -40.534485 -106.25251 -0.73884279 0.67366701 0.016855014
-28.777325 -43.154251 -90.888702 -0.97702128 0.16727002 0.13209923
-28.345282 -42.880371 -88.198509 -0.95779401 0.25410452 0.1343932
-29.411146 -42.512997 -110.00909 -0.78037083 0.62498993 0.020221861
-29.911478 -43.295845 -105.23539 -0.85110825 0.52444947 0.023822289
-30.405521 -44.169212 -107.51897 -0.87902451 0.474953 0.041661117
-30.274401 -44.834675 -100.50177 -0.92943823 0.35302323 0.10732726
-31.178219 -44.532234 -111.43636 -0.85057467 0.524068 0.043305978
-30.951878 -45.575348 -103.01418 -0.93384206 0.34713694 0.086226188
-30.01251 -45.289745 -133.17706 -0.46891174 0.87392873 -0.12794678
-30.481514 -44.054688 -109.81305 -0.84600878 0.51978672 0.11870555
-31.09148 -46.088264 -134.05023 -0.57231587 0.8150785 -0.090009406
-30.741253 -45.52824 -130.99155 -0.55680144 0.82074153 -0.12788902
-30.873566 -44.463257 -115.58918 -0.80671853 0.5908429 -0.01047496
-29.46151 -48.20105 -150.47435 -0.29890981 0.93938494 -0.16795519
-32.138798 -46.41589 -115.25781 -0.86026448 0.50980335 0.0067444211
-29.686623 -47.670399 -147.479 -0.34272805 0.92300898 -0.17490555
-29.170258 -48.855293 -154.89253 -0.20849591 0.96041548 -0.18474713
-29.607071 -48.647793 -152.98274 -0.24750187 0.9544856 -0.16643351
-33.220913 -48.045143 -117.42387 -0.94576496 0.30684111 0.10666411
-33.589119 -48.087814 -131.13408 -0.77201295 0.63560277 -0.0022693991
-33.906284 -48.415733 -127.26916 -0.83127481 0.55584449 0.0043683914
-25.593203 -38.499008 -72.951904 -0.89426488 0.44578186 0.039609533
-31.452707 -49.342777 -153.5518 -0.34027478 0.92795783 -0.15201098
-31.513309 -48.98975 -151.1868 -0.3564654 0.9241693 -0.13727219
-33.504593 -49.900135 -151.31525 -0.46064678 0.8785131 -0.12656686
-34.278393 -50.510143 -151.54738 -0.55217332 0.82700843 -0.10564905
-33.741108 -50.77404 -155.81755 -0.44300947 0.88953573 -0.11166354
-22.776705 -57.79652 -187.59615 -0.34438032 0.93595183 -0.073459946
-23.420019 -57.825012 -187.43062 -0.5985859 0.79938745 0.051716942
-23.009762 -57.546547 -185.80598 -0.64564502 0.76212311 -0.048071675
-23.792444 -58.573414 -183.5105 -0.97238761 0.23331386 -0.0051906561
-23.82036 -58.454514 -186.01772 -0.96154374 0.24500844 0.12411486
-25.161625 -59.7826 -193.2059 -0.93123448 -0.30586392 0.19811502
-7.4830861 -25.649996 84.863586 -0.78591013 0.075439125 0.61372173
-37.080704 -53.19796 -158.76051 -0.61291963 0.78753674 -0.064150646
-43.45097 -60.193569 -200.17485 -0.78933817 0.61325061 0.029476747
-26.747446 -59.558064 -204.59406 -0.59839457 0.79317045 0.11315713
-15.689778 1.1584318 18.22106 -0.45983443 0.88142735 -0.10788011
-15.733921 0.41503283 14.496605 -0.32228294 0.90398914 -0.28095788
-20.366302 -29.672144 -42.469559 -0.99043119 -0.084134735 0.1093958
-20.184668 -37.145676 -110.59891 -0.11610419 0.98186028 -0.14990091
-19.485485 -37.231083 -110.37318 0.082581885 0.97241724 -0.2181401
-25.679235 -38.668087 -108.79111 -0.50765026 0.85819548 -0.076103792
-31.718822 -48.533051 -147.31314 -0.39599764 0.9071666 -0.14224848
-32.899754 -49.950901 -153.851 -0.42206603 0.89176661 -0.16313353
-21.857077 -57.306545 -188.15192 -0.083048463 0.9909786 -0.1051874
-20.092056 -43.807877 -100.76437 0.068852097 0.92475808 0.37427506
-18.856905 -44.114388 -99.708801 0.03392756 0.9802838 0.19466014
-27.114553 -59.354183 -206.72591 -0.58227319 0.80727899 0.096220724
-25.852251 -58.799911 -206.40047 -0.1520364 0.98837012 0.0030659249
-24.328945 -58.307335 -196.3578 -0.34993988 0.93662333 -0.016702641
-30.578201 -49.442078 -155.70432 -0.32411984 0.92787296 -0.18438599
-22.98385 -57.258728 -183.68504 -0.70208722 0.70218152 -0.11838309
-43.331089 -61.029694 -188.10385 -0.98115492 -0.19117916 0.028028678
-25.270632 -14.473486 50.912552 -0.86504871 0.46533453 0.18749523
-27.618536 -59.037186 -210.86789 -0.34916228 0.93092102 0.10710611
-15.998959 -5.2347426 3.4081779 0.093424618 0.84459406 -0.52719319
-27.538677 -40.372101 -109.15149 -0.68869066 0.72295439 -0.055154804
-27.070263 -59.188751 -209.14886 -0.29302618 0.95459068 0.053780355
-28.547831 -26.83473 54.867069 -0.90725404 0.23255742 0.35043854
-19.875269 -25.59318 72.708984 -0.82286817 0.10411365 0.55861288
-7.3353386 -28.910997 84.940559 -0.86323941 -0.0096825706 0.50470179
-19.0187 -2.6258848 9.0225916 -0.40246788 0.83676201 -0.37128022
-20.220369 -4.120605 5.7052765 0.03974764 0.97266412 -0.22878988
-20.145784 -4.1027398 6.9046884 -0.23235142 0.90209848 -0.36363593
-20.184269 -3.6327171 7.9096279 -0.28066376 0.9198364 -0.27409637
-20.875458 -3.3114595 10.307292 -0.46702009 0.85372841 -0.23030405
-22.036764 -3.6372659 11.640765 -0.32810777 0.94458401 -0.010312366
-21.919733 -3.5809057 13.079638 -0.51746225 0.85279912 -0.070473701
-12.746385 0.43698159 45.703045 -0.37304845 0.902538 0.2150813
-23.705982 -4.2600636 13.476365 -0.44281229 0.88296717 0.15584041
-14.06631 0.073702939 43.904232 -0.435801 0.86682147 0.24227671
-4.6708155 -1.4632764 55.882599 -0.26785022 0.92155933 0.28104195
-15.673683 -0.59626073 43.151176 -0.50796402 0.82189298 0.25780693
-20.6418 -2.4474933 30.148611 -0.53604102 0.84329319 -0.038943704
-16.696617 -0.47583756 39.442421 -0.54939228 0.82177514 0.15117471
-22.035664 -2.8783102 30.118444 -0.47547632 0.86498988 -0.1603584
-13.635317 -0.30647177 46.052982 -0.4792493 0.83643275 0.26589543
-13.284027 -0.95417929 48.730785 -0.43122962 0.84833336 0.30719927
-20.526289 -27.444458 72.435379 -0.80014265 0.15392336 0.57972366
-19.179047 -1.5246165 36.014091 -0.61792892 0.77851701 0.10988722
-21.421047 -3.051105 27.910364 -0.69077945 0.72306466 0.00113062
-17.31888 -1.3435543 41.971828 -0.57660812 0.79267055 0.1979813
-17.123947 -2.0501745 44.876556 -0.52874947 0.81208581 0.24686159
-23.761074 -5.4352078 26.717346 -0.72479719 0.67943037 0.11420783
-23.391083 -4.8527017 28.347641 -0.73438972 0.67461729 -0.074587554
-19.583162 -2.378525 38.350853 -0.64418203 0.74970609 0.15155973
-17.946905 -2.438446 44.09716 -0.59760803 0.76945728 0.22538884
-14.238612 -2.8325176 52.443874 -0.44311056 0.83790791 0.31869009
-27.617619 -60.483734 -204.6619 -0.97373766 -0.094893731 0.20695454
-20.655741 -3.3522568 38.893002 -0.6884234 0.70791227 0.15790318
-16.286777 -2.495647 48.19521 -0.5296061 0.79977679 0.28262061
-15.247046 -2.8196032 50.417778 -0.50354487 0.81325138 0.29165888
-26.171074 -59.88131 -199.03011 -0.92705506 0.33660987 0.16511412
-29.072271 -30.460577 55.707062 -0.91342682 0.14512026 0.38025185
-18.595591 -4.1761518 47.837711 -0.54602057 0.791861 0.27352846
-21.801912 -28.998289 70.801331 -0.82827985 0.15396073 0.53874725
-24.249212 -58.876297 -187.1599 -0.82658434 0.55610514 0.086633846
-13.188881 -42.259308 -102.90768 -0.10146705 0.84151602 0.53061777
-22.388361 -5.844902 41.723297 -0.74516273 0.63030249 0.21783309
-19.579012 -3.1300356 42.053616 -0.64245129 0.73895538 0.20298083
-16.363905 -3.7695596 51.413143 -0.57325518 0.7562862 0.3152931
-13.963423 -42.944191 -102.1316 -0.10510786 0.85598433 0.50620461
-22.732637 -5.1848407 36.773022 -0.7597692 0.63753527 0.12766962
-20.671112 -4.9140821 43.574657 -0.72491282 0.6702944 0.15876654
-19.558945 -4.3083277 45.164223 -0.65676105 0.7299183 0.18943103
-16.750055 -42.447769 -103.032 0.0025953935 0.76245528 0.6470356
-17.008568 -43.19112 -102.1759 -0.046660267 0.82888246 0.55747348
-14.700731 -43.143845 -101.46445 -0.18967043 0.92236465 0.33655384
-17.261591 -23.218491 -22.679506 -0.96393847 -0.22548693 0.14134493
-17.102936 -21.540651 -21.214041 -0.90312207 0.41674682 -0.10340473
-26.352861 -7.5063314 23.711693 -0.71834326 0.68979937 0.090332121
-26.35034 -7.7534895 25.369434 -0.73109603 0.67030334 0.12724824
-22.374353 -5.2639809 38.947403 -0.75505716 0.64011049 0.14194103
-13.811491 -5.4241018 58.782761 -0.49876499 0.75770175 0.42085814
-20.391302 -4.1516795 42.718712 -0.69045281 0.68687755 0.22687902
-20.990751 -29.219393 72.11161 -0.81459916 0.15867263 0.55789888
-17.348736 -23.968311 -25.930656 -0.98581058 0.14723529 0.080618784
-14.317973 -4.7024808 56.514626 -0.51186067 0.7833721 0.35260016
-27.629166 -8.924654 23.119408 -0.77362496 0.62778854 0.085941419
-28.34757 -10.310946 26.010708 -0.78060758 0.61351782 0.11936357
-17.723972 -5.5905938 52.862377 -0.57018042 0.7417407 0.35315019
-15.825089 -5.6137366 56.031734 -0.55709171 0.7575354 0.34027767
-33.787632 -48.626148 -138.81818 -0.64157158 0.76386827 -0.069937728
-27.783834 -40.73777 -103.87036 -0.44847414 0.84559512 0.28955108
-20.557327 -29.961905 -45.266689 -0.87772268 0.47915897 -0.0031209348
-7.3964481 -31.278465 85.105782 -0.80323601 0.080660895 0.59017426
-19.244675 -6.1501522 51.502937 -0.66041893 0.69340712 0.28815517
-18.985762 -6.8095775 53.149494 -0.61828518 0.70302755 0.35139117
-17.3799 -6.2427158 54.957851 -0.59427124 0.72411382 0.35000122
-15.938558 -6.4744878 57.763214 -0.57434058 0.70342642 0.41871727
-36.139626 -51.603001 -151.5136 -0.62632406 0.77412087 -0.091950879
-21.713808 -31.875061 -50.343845 -0.87627715 0.48084682 0.030407943
-20.437048 -30.525761 -43.928047 -0.89637935 -0.35822478 0.26111135
-27.967096 -9.9977818 27.203014 -0.74062204 0.65520895 0.14892992
-15.371844 -7.0900812 59.180931 -0.59206486 0.68462586 0.42514294
-37.012444 -52.699944 -153.86411 -0.65777069 0.75245923 -0.033803936
-22.708071 -34.445747 -55.21608 -0.83232111 -0.49597096 0.24749613
-29.476372 -11.337483 23.997135 -0.82275718 0.5586822 0.10461687
-20.167442 -7.6303091 52.829227 -0.71917993 0.64153248 0.26686364
-18.568211 -7.6275611 55.649048 -0.64069879 0.67829132 0.35975811
-37.0839 -52.43578 -148.70642 -0.70920473 0.70490074 -0.011989251
-34.325958 -49.332794 -139.929 -0.71078563 0.70260465 -0.033623148
-28.901495 -41.874065 -102.64723 -0.79982245 0.5918051 0.1002532
-23.37248 -34.973064 -59.520985 -0.98098409 0.13193379 0.14235088
-22.80633 -33.740738 -59.653187 -0.60801089 0.78899944 -0.088332228
-23.199247 -35.142487 -58.020752 -0.95974302 -0.1195972 0.25414538
-24.785149 -37.679707 -66.551704 -0.98102432 -0.049295794 0.1875135
-29.940269 -12.647932 26.122149 -0.84329784 0.52575666 0.1114841
-20.444744 -9.3501301 55.261105 -0.70682395 0.61424422 0.35086143
-13.626346 -9.1035585 65.377197 -0.45388603 0.74825972 0.48383343
-38.161526 -53.906418 -151.8703 -0.85845411 0.51240033 0.022415018
-25.25061 -38.319489 -69.454529 -0.98803228 0.11555865 0.10216796
-23.739075 -36.242649 -62.00853 -0.96236455 -0.13862918 0.23374422
-41.387386 -57.659813 -166.53389 -0.97133696 0.17495404 0.16092086
-30.237677 -60.412285 -214.03654 -0.6140222 -0.77257526 0.16156784
-37.242359 -52.734619 -150.75305 -0.74848336 0.65950185 -0.069498166
-37.109375 -52.587086 -145.65704 -0.80896193 0.58407235 0.066634417
-27.048943 -40.607449 -82.694046 -0.81459773 0.57998252 -0.0071291099
-27.565216 -41.919189 -83.10759 -0.96604663 0.21339899 0.14565313
-27.104715 -41.202641 -81.233673 -0.97205281 0.1947087 0.13115606
-26.161512 -39.610199 -75.992798 -0.93383741 0.35189605 0.064162299
-15.270211 -10.017858 65.278542 -0.49764293 0.72407734 0.47756001
-38.058292 -53.416637 -148.71217 -0.83587199 0.54892385 -0.00077063782
-29.514297 -44.299072 -95.385757 -0.86692613 0.49757889 0.029228486
-27.872759 -42.454597 -84.493469 -0.96992701 0.23643844 0.057778973
-26.832968 -41.535244 -79.218445 -0.97349524 -0.057260145 0.22142324
-26.640242 -41.173897 -77.300842 -0.97336394 -0.14240794 0.17967407
-23.065643 -11.420714 52.85157 -0.79225343 0.5482766 0.26781937
-38.897564 -55.258575 -150.51793 -0.96050322 0.27778602 0.016385837
-38.33952 -54.355515 -147.57294 -0.96860307 0.2061635 0.13894129
-28.518408 -43.983807 -88.628334 -0.96133888 -0.18786836 0.20132788
-27.025951 -42.537899 -79.872826 -0.86639464 -0.31559381 0.38698936
-6.6415038 3.2803028 40.80584 -0.23975465 0.96239465 0.12772737
-29.88031 -45.898418 -95.755852 -0.95471436 -0.19402555 0.22555389
-27.896561 -44.269077 -85.361588 -0.92342103 -0.33867303 0.18053852
-27.730131 -43.203262 -83.408867 -0.98562044 -0.0053797844 0.16888891
-27.348509 -42.473522 -81.285042 -0.97029567 -0.084755637 0.22658977
-28.739435 -13.377758 36.466122 -0.85184968 0.50760764 0.12917675
-6.228281 -13.490264 78.135391 -0.33349997 0.74115127 0.58264279
-3.9372656 -13.808065 80.113365 -0.27238491 0.74763072 0.60568541
-28.154427 -13.100764 38.458683 -0.84276533 0.494524 0.21258557
-21.364172 -11.437746 56.903133 -0.75077987 0.55895281 0.35199612
-4.882905 -13.077506 78.380424 -0.3324804 0.75015688 0.57159555
-7.1390676 -14.777536 79.417801 -0.34956387 0.70478195 0.61732286
-24.524401 -13.790132 52.473015 -0.8514874 0.47043583 0.231645
-23.664867 -13.505372 54.733498 -0.82275617 0.48016995 0.30415305
-5.0888395 -14.791811 80.402267 -0.34043863 0.73868454 0.58176178
-34.006508 -19.274189 19.858801 -0.74353409 0.66219127 0.093057826
-33.130219 -18.888481 23.187063 -0.88278586 0.45514706 0.11632021
-25.58144 -17.157722 54.82782 -0.87204754 0.40368223 0.27671945
-24.973673 -17.800028 57.378258 -0.85785675 0.3898851 0.33477068
-7.1643443 -17.313639 81.81002 -0.3854939 0.59928429 0.70160729
-5.7466698 -18.96752 83.701996 -0.43079194 0.52537686 0.73375571
-7.0555849 -18.830458 83.081558 -0.34642807 0.44058073 0.82817644
-31.891066 -22.497808 38.441093 -0.93754089 0.18197672 0.29648164
-6.9099355 -20.868591 84.32209 -0.51849383 0.3811776 0.76542002
-20.002123 -20.445274 70.553688 -0.84035206 0.30829448 0.44582829
-6.7995777 -22.30549 84.805916 -0.61287659 0.20745467 0.7624597
-7.4713326 -21.084122 83.687462 -0.60941356 0.33449313 0.71883899
-20.786404 -22.25853 70.144234 -0.94351643 0.27948982 0.17793886
-20.833075 -23.234156 70.436653 -0.87185848 0.24142538 0.42611793
-17.124126 -0.36061454 13.32304 -0.42753151 0.88232857 -0.19675668
-17.466347 -22.837439 -24.683962 -0.99389255 0.10476002 0.034683414
-17.843206 -24.496759 -27.6299 -0.91455239 0.38585982 0.12126875
-35.974442 -50.923122 -139.20605 -0.75846219 0.65105915 0.029275786
-25.128887 -59.128265 -195.05019 -0.83428371 0.54229414 0.099437296
-11.622833 -42.816296 -101.07572 -0.11028532 0.97091675 0.21250346
-12.790671 -6.9621253 62.772018 -0.40999633 0.82446039 0.39008719
-8.2237835 -2.8450799 58.371326 -0.29916483 0.85219651 0.42925701
-9.8260221 -3.8251171 59.15353 -0.34453407 0.85733891 0.38244772
-12.554207 -1.3013595 50.563084 -0.40311038 0.86546189 0.29745215
-21.536175 -32.381538 72.201134 -0.83583885 0.098271795 0.54010737
-39.982491 -56.532131 -216.9787 -0.33929718 0.93879479 0.059513234
-37.195572 -56.820415 -213.54552 -0.11860876 0.95448261 0.27366936
-36.51284 -56.220695 -215.41078 -0.11345882 0.96008748 0.25565445
-40.631603 -56.925137 -215.33693 -0.39728579 0.90252709 0.16615915
-39.223728 -56.585625 -215.24341 -0.1688066 0.95554453 0.24174152
-39.423416 -57.460594 -212.34781 -0.20093803 0.95749813 0.20693268
-41.068562 -57.566299 -213.72183 -0.33669463 0.92953032 0.15036635
-40.574615 -57.768677 -211.02301 -0.3130914 0.94352657 0.10831141
-40.070866 -57.652973 -208.96257 -0.41163197 0.91000283 0.049537454
-43.172852 -59.083752 -212.49449 -0.75819904 0.64933085 0.059191704
-41.862797 -58.019306 -212.17673 -0.51565295 0.85042346 0.1043167
-40.965935 -58.339699 -209.01624 -0.40451217 0.89877814 0.16901955
-42.28175 -58.634041 -209.78336 -0.60816574 0.78863698 0.09047699
-31.676422 -59.675835 -214.98972 -0.37303689 -0.92301172 0.094300829
-20.376417 -32.790398 74.021095 -0.81005317 0.079150327 0.58098984
-15.921151 -39.184784 -106.49844 0.034103908 0.66176313 0.74893689
-18.556419 -39.609528 -105.84029 0.05241302 0.69186711 0.72011995
-33.345097 -48.076344 -135.85266 -0.6704573 0.73961991 -0.058731399
-23.826611 -40.407368 -104.19748 0.17604196 0.69663942 0.69548744
-15.449384 -40.152634 -105.91357 0.016518435 0.69532365 0.71850687
-35.703972 -50.785431 -136.40402 -0.86468738 0.49993208 0.048822775
-32.516533 -46.654526 -125.34487 -0.77712172 0.62649953 -0.059833627
-31.64624 -45.738514 -124.49653 -0.71000659 0.70114237 -0.065498717
-31.664936 -45.278919 -122.77927 -0.70736259 0.70305741 -0.073133476
-20.687572 -40.174961 -105.3512 0.13991696 0.63687962 0.75816059
-35.026928 -49.854519 -134.14694 -0.79756153 0.60319835 -0.0068786726
-32.999187 -47.236191 -127.20076 -0.74956727 0.66175282 -0.015234946
-33.079971 -47.529491 -124.77635 -0.86986059 0.4918558 0.037689585
-32.05402 -46.24147 -120.06602 -0.84621257 0.52817172 0.070419982
-32.033749 -45.705585 -121.25916 -0.77671057 0.6295653 0.019189475
-25.234131 -40.04071 -103.99635 0.045087647 0.80419463 0.59265339
-17.61746 -40.787525 -104.76453 0.064142711 0.71691227 0.69420648
-35.825317 -51.460136 -133.27788 -0.914949 0.39947984 0.05730759
-35.363388 -50.307541 -132.79852 -0.88504481 0.46414804 0.035527691
-34.335159 -48.826843 -131.41765 -0.76558161 0.64330572 -0.0065195854
-32.971989 -46.807602 -123.39468 -0.88214976 0.47089553 -0.0083219586
-32.368187 -45.978134 -122.55026 -0.79825991 0.60222316 -0.010407425
-33.566875 -47.791683 -125.59313 -0.86805856 0.49076229 0.075011633
-26.44833 -41.181187 -102.64475 0.02820551 0.83826292 0.54453623
-24.42668 -41.601345 -102.75137 0.22810361 0.76725078 0.5994122
-32.806557 -46.957794 -121.40971 -0.84071743 0.53934693 0.047948241
-33.333138 -47.993935 -119.71176 -0.88614357 0.46249226 0.029163435
-32.512112 -46.737225 -118.90102 -0.84659433 0.53045106 0.043584585
-27.758417 -41.443489 -102.04173 -0.25316674 0.89046365 0.37812835
-26.704712 -41.80489 -101.03201 0.10552365 0.88930166 0.44498006
-23.448925 -42.259335 -102.35423 0.22506198 0.82446873 0.51922864
-0.29952672 5.6940241 28.852869 -0.02104703 0.99896371 0.040355135
0.41389307 5.5278788 30.950418 0.056127463 0.99662811 0.059852071
-29.535921 -43.053627 -100.91138 -0.80491847 0.57221335 0.15709275
-7.8632774 4.8848038 26.946003 -0.21841155 0.97585678 7.2067909e-05
0.31818807 5.4441209 32.434864 -0.025245674 0.99196482 0.1239695
1.8459417 5.3169012 32.991257 0.040494978 0.9853881 0.16544008
-28.672003 -42.692139 -100.09557 -0.37278554 0.88040745 0.29311001
-5.6038861 5.397737 29.355633 -0.14241405 0.98487908 0.098647289
-3.3424194 5.5671959 30.851782 -0.11675222 0.98193222 0.14892241
-0.23914811 5.1795006 34.320007 -0.021341287 0.98828226 0.15113798
-29.603003 -43.962112 -98.635895 -0.81920743 0.55228257 0.15454158
-28.652576 -43.310448 -95.339828 -0.68533099 0.71632212 -0.13116451
-27.201075 -42.74007 -97.37986 -0.36025384 0.93146646 0.050866548
-27.657589 -42.605679 -95.516357 -0.58827013 0.76447272 -0.26366603
-9.5232382 4.4821987 25.65369 -0.29139268 0.95660353 -0.00018152728
-11.345303 3.8530385 28.082817 -0.33171517 0.94213647 0.048414018
-7.7802978 4.8382864 28.919651 -0.27474228 0.93297154 0.2325528
-2.8744395 5.1248178 32.8522 -0.21047431 0.95885295 0.19052987
-28.62941 -43.574047 -97.188591 -0.58878845 0.80119902 0.10680968
-12.277474 3.5014601 25.936348 -0.41085589 0.91104341 -0.034602631
-10.244661 3.9830098 29.672411 -0.26387435 0.94184977 0.20806122
-9.2639389 4.5180902 28.410875 -0.27100652 0.94954109 0.1578837
-5.1522284 4.4345202 32.259861 -0.29299462 0.90347022 0.31288281
1.6450149 4.765861 36.149921 0.046122286 0.98653847 0.15689036
-20.393625 -35.125683 74.131599 -0.82236391 0.10815859 0.5585869
-13.083573 2.9298296 27.383108 -0.4268699 0.90428817 0.0066976002
-12.823428 3.1665804 28.626945 -0.41580197 0.9058913 0.080434434
-7.9446011 3.7622344 31.780586 -0.24342419 0.92012757 0.30677342
-3.4604805 4.4595032 35.065071 -0.28086355 0.95454103 0.099835895
-1.6286783 4.7149253 36.956093 -0.10936467 0.98266858 0.14967249
0.53187662 4.6420841 37.733376 0.021699302 0.9848392 0.17210697
2.2543778 4.1469078 39.822166 0.055120494 0.97653669 0.20817722
-11.664186 3.3737636 30.028305 -0.28179604 0.94094276 0.18766357
-16.802221 0.97274488 23.6502 -0.53577274 0.84420222 -0.01643629
-15.263474 1.8436699 24.204775 -0.48715821 0.87283242 -0.028989533
-14.474028 2.501235 26.835791 -0.4623659 0.88668776 0.0016028296
-9.9716082 3.1627734 32.316326 -0.19811821 0.94483459 0.26083851
-4.8479109 3.6800227 35.707802 -0.49293622 0.87001938 -0.0089486521
-15.584224 1.5783024 27.404001 -0.53003186 0.84780467 0.017130222
-14.088326 2.4474311 29.929831 -0.46221483 0.88503855 0.055356067
-15.839862 1.4707561 29.918846 -0.53094435 0.84661657 0.036586408
-13.485104 2.4610922 31.822472 -0.34589031 0.92931247 0.1293761
-12.202617 2.6314268 33.461342 -0.24320938 0.95628256 0.16239744
-5.3644471 3.8947425 38.961964 -0.20148923 0.97623813 0.07975731
-5.4799018 3.4332385 41.833927 -0.17125915 0.96438324 0.20158193
-2.1335404 4.13901 40.354057 -0.088404134 0.98104078 0.17246404
0.26989135 3.9084885 41.191345 0.014675306 0.97237301 0.23297022
-26.170813 -39.456856 -74.170784 -0.97678041 0.17501201 0.12357508
-17.232937 0.63186705 28.88723 -0.5533362 0.83209294 0.037951205
-15.108209 1.7555723 32.087307 -0.43691736 0.89511281 0.088748202
-14.495104 1.6922703 34.897488 -0.36435232 0.9216854 0.13320462
-3.5467875 3.1334569 43.977688 -0.066072159 0.95865244 0.27680326
-18.685484 -0.32315755 26.854748 -0.60667229 0.79472744 0.018894387
-20.347061 -1.5936441 27.365175 -0.68143398 0.72421533 0.10564037
-13.585917 1.3910922 36.103123 -0.078968339 0.99155974 0.10282652
-18.86931 -0.71100569 29.524961 -0.64027804 0.76618809 0.054770488
-17.918442 -0.10724014 32.138878 -0.60941154 0.78950214 0.072827645
-16.970932 0.37222463 33.494705 -0.57364857 0.81599206 0.071302958
-16.020821 1.1315261 33.410809 -0.52561253 0.84502822 0.09827885
-14.18288 1.4370164 37.59869 -0.36220717 0.93209708 0.00097447884
-1.3099515 2.9343143 45.177254 -0.07003247 0.94797873 0.31053448
0.27553359 2.6826022 46.600048 -0.051702857 0.95457697 0.2934444
-22.322866 -3.3720725 23.808346 -0.68162501 0.73168987 -0.0041638198
-16.146246 0.52605897 36.937256 -0.50137073 0.8536498 0.14109999
-5.8410578 2.523592 45.149803 -0.16430089 0.93706071 0.30809471
-1.9282711 2.0793567 47.083252 -0.23552579 0.90415072 0.35642532
-23.867529 -4.9562035 23.65637 -0.71074843 0.70343065 -0.0046798629
-19.776041 -1.6432761 31.93038 -0.60363364 0.79663098 0.031709891
-17.522516 -0.11879767 36.256302 -0.59186774 0.79716766 0.11923203
-14.925128 1.1487795 37.41127 -0.45293653 0.87729746 0.15873793
-11.326002 1.1280531 44.038734 -0.32459468 0.91092545 0.25466302
-4.9575329 2.1419058 45.829662 -0.075734556 0.849819 0.52160513
-7.0273294 1.8027068 46.155205 -0.19565682 0.85016435 0.48881385
-3.9204426 1.2459983 47.26973 -0.2103332 0.87380046 0.43844351
0.116666 1.1545773 50.914494 -0.19835941 0.94551963 0.25815925
-1.3059118 0.97029692 50.210854 -0.233771 0.93735999 0.25827757
-11.692579 0.494699 46.254745 -0.33173728 0.90964144 0.25000569
-9.418951 1.2429643 45.88089 -0.20430717 0.90822041 0.36523154
-5.9139314 0.86490637 47.447189 -0.098418526 0.87649596 0.47124156
-24.90078 -6.0718036 25.13718 -0.74025154 0.6637044 0.10735081
-23.457453 -4.6314144 25.656727 -0.71340925 0.69107836 0.11600879
-21.43327 -2.558332 33.262997 -0.50730652 0.86013293 0.053022798
-21.006193 -3.0425465 34.987049 -0.68391901 0.71228307 0.15782171
-11.460739 0.065137662 48.23695 -0.29053923 0.88775891 0.35703084
-10.076159 0.84312713 47.205414 -0.19099745 0.93414873 0.3014732
2.6541495 0.61570311 53.288738 -0.0081380242 0.96204472 0.27277064
-0.22715515 -0.044024449 55.387165 -0.048755713 0.94474578 0.3241578
-24.648245 -6.6174126 28.507507 -0.74530679 0.64803267 0.15675257
-25.568981 -7.2257514 26.470762 -0.75266171 0.64666587 0.12378906
-23.70612 -5.9667044 29.151518 -0.69628543 0.53896886 0.47402439
1.2236122 -0.66331816 56.918423 -0.016338002 0.93386394 0.35725489
-26.171007 -8.1477375 27.317749 -0.72757912 0.66014731 0.18663891
-1.3606389 -0.68433923 56.183907 -0.10275903 0.93650204 0.33526766
-2.1031799 -0.057817061 54.309662 -0.10698272 0.96058816 0.25656417
2.6917717 -1.1445721 57.942463 0.057541203 0.89641148 0.43947166
-2.6344419 -1.1262256 57.604748 -0.12539567 0.93404388 0.33442184
6.0204 -2.1689723 58.803864 0.032788575 0.80139476 0.59723639
-18.377371 -3.1023304 45.169594 -0.63005632 0.73636657 0.24656281
-2.2630355 -1.9202468 59.727886 -0.12977542 0.89772016 0.42101878
6.8940563 -3.1981528 60.238972 -0.054198612 0.84701395 0.52880037
-24.317768 -6.8786521 36.107574 -0.77193779 0.63432467 0.041764479
-23.405897 -6.6105852 38.76997 -0.75163388 0.6441915 0.14164717
-15.00762 -3.2607923 52.819679 -0.50712526 0.80142933 0.31707269
-7.0136695 -2.4961491 57.873989 -0.20348561 0.9140147 0.35095701
-0.9338392 -2.4738932 61.048622 0.047330774 0.87880129 0.4748348
-25.572617 -8.4559345 34.841644 -0.79307932 0.59917647 -0.10960279
-25.629677 -8.869998 37.550301 -0.79870224 0.57994717 0.16042432
-23.812981 -7.1095881 39.711563 -0.76991755 0.6126492 0.17857191
-21.327322 -4.8565912 44.789639 -0.59819639 0.71741837 -0.35703224
7.167387 -4.0670085 62.330585 -0.045455709 0.92342728 0.38107184
-21.665527 -6.1089787 45.07552 -0.81165451 0.58164728 -0.053882621
-19.753197 -4.6627069 49.395035 -0.21824773 0.81495863 0.5368523
-18.273067 -4.7380586 50.111141 -0.50966078 0.77999216 0.36312267
-14.626467 -4.2332335 54.983406 -0.52230626 0.7693764 0.36777195
-5.3179107 -2.5576961 59.642647 -0.22352296 0.90536118 0.36105224
-3.9160216 -2.7474437 60.468784 -0.16338062 0.90708035 0.38795874
-22.647263 -7.0817089 42.98101 -0.7551347 0.63059485 0.17922546
-22.512167 -7.1076427 44.682102 -0.77750427 0.60388607 0.175524
-19.388798 -5.9810495 50.255138 -0.67189515 0.60217005 0.4312171
-30.654575 -13.715476 26.408758 -0.88262683 0.4696514 0.019935267
-24.935627 -8.4583473 38.587299 -0.801934 0.56859332 0.18331264
-24.423662 -8.312953 41.337032 -0.80593294 0.54065561 0.24117132
-8.2956142 -3.508924 59.989346 -0.2754921 0.90084529 0.33553222
-6.5681105 -3.7921987 62.004162 -0.26192752 0.87192762 0.4136861
7.4268489 -4.9873605 64.638199 -0.10669314 0.94769299 0.30082291
-30.962317 -14.222339 24.724716 -0.86332512 0.49238649 0.11056783
-23.272299 -7.7414632 42.659687 -0.77478105 0.5779556 0.25628433
-23.889698 -9.5023718 45.117889 -0.80143929 0.55167645 0.23097216
-9.4043875 -4.2681332 60.826111 -0.34715176 0.85500813 0.385288
6.8337736 -5.4643483 67.163391 -0.00018561902 0.95648694 0.29177496
-31.554729 -14.605176 22.998623 -0.91127044 0.40196025 0.089521214
-26.039213 -10.530908 39.990814 -0.8264634 0.52349174 0.2071583
-23.502104 -8.1106033 43.88168 -0.82365477 0.5454632 0.15512164
-10.744733 -4.2819724 59.365509 -0.36833975 0.84964967 0.37738755
-31.136326 -14.89195 26.033596 -0.92333859 0.35516644 0.14595424
-24.325071 -9.4664927 43.064816 -0.79448241 0.56465983 0.22351082
-25.070486 -10.331635 42.792526 -0.79507291 0.56068963 0.23127079
-10.341293 -5.3118463 62.121166 -0.36208653 0.81352431 0.45505121
-8.2457819 -5.1955886 63.184582 -0.34891459 0.81489331 0.46282554
-32.158932 -17.68187 25.481514 -0.92886722 0.33426681 0.15959753
-6.863409 -6.3180008 66.552711 -0.31580135 0.84311634 0.43522909
6.9162717 -6.2452221 69.02829 0.070464753 0.93125391 0.35749233
-32.470291 -16.894228 21.977793 -0.93006623 0.35784739 0.083199367
-26.1423 -11.653664 42.200344 -0.82846856 0.51431257 0.22163579
-25.081936 -10.490049 44.328419 -0.74577463 0.65883034 0.098806769
-13.60795 -6.6922045 60.946205 -0.52378869 0.75182873 0.40049827
-11.806251 -5.2233329 60.437191 -0.42344281 0.80413979 0.41719949
-8.0385675 -6.1487422 65.204704 -0.32936874 0.84673852 0.41779205
-3.9425981 -5.7522144 67.304886 -0.21905206 0.86616749 0.44918832
5.4101443 -6.8939462 71.459824 0.026840745 0.92011636 0.39072421
-27.184786 -13.035672 41.667095 -0.82756817 0.49997097 0.25526458
6.5225625 -7.3331099 71.936852 0.12415814 0.88458979 0.44953924
-44.802975 -64.707344 -214.99525 -0.56180251 -0.82172358 -0.095647611
-10.425141 -7.304358 65.893005 -0.38709468 0.81828779 0.42492676
-9.169548 -7.9543819 67.87085 -0.34861547 0.81611598 0.46089256
-5.7930946 -7.4116292 69.446831 -0.30217054 0.82301408 0.48097897
-27.672422 -14.612529 42.772217 -0.83025545 0.45913187 0.31602833
-3.6252687 -7.7789488 71.076721 -0.24648507 0.83953428 0.48417699
-2.8179462 -8.171217 72.313957 -0.22406457 0.83687812 0.49942979
-0.11012691 -8.0522146 72.682777 -0.098555908 0.8623693 0.49659437
-0.14857692 -8.830924 74.304581 -0.14391212 0.84182292 0.52021474
-29.601852 -16.695147 40.324966 -0.8780961 0.41715184 0.23437472
-28.547434 -15.083828 41.158138 -0.84710288 0.46100196 0.26437443
-6.8614554 -8.4110193 70.280853 -0.32546055 0.80549139 0.4952364
-19.345665 -11.135468 60.737568 -0.67110085 0.6098904 -0.42149422
-10.52972 -9.8742733 69.906227 -0.39980567 0.7777679 0.48500782
-11.468735 -9.0055819 67.692398 -0.46190917 0.76103032 0.45549184
-9.5226355 -9.2051191 69.754707 -0.37440416 0.79188347 0.48243356
-5.5916944 -8.9115849 71.967697 -0.3215037 0.79255581 0.518161
1.5527788 -9.7648983 76.098778 -0.077977575 0.8468008 0.52616352
-21.717997 -13.602281 59.050087 -0.73573303 0.53783137 0.41162392
-19.789129 -11.907681 60.326279 -0.71250546 0.62936604 0.31021646
-8.6053953 -9.9545469 71.574509 -0.3545565 0.76135075 0.54280275
-0.40913469 -9.843503 75.671234 -0.16761032 0.83735448 0.52033085
-30.531261 -18.604128 39.946465 -0.91481519 0.33928818 0.21908148
-6.7289286 -10.390533 73.056786 -0.28939295 0.8762778 0.38521281
-3.1949801 -9.717948 74.550003 -0.24510838 0.81692529 0.52206796
-29.53717 -18.389418 42.597858 -0.85026449 0.33820093 0.40332407
-15.636553 -12.078582 67.79319 -0.59391814 0.67667943 0.43516213
-13.715238 -10.513463 67.650345 -0.51605761 0.72423726 0.45734558
-11.555931 -10.695822 70.469124 -0.45504257 0.74113423 0.4936156
-5.3556838 -10.499763 74.426147 -0.25592977 0.85342526 0.45405433
10.121313 -12.100472 78.462143 0.1162055 0.75345576 0.64714819
-31.155418 -20.477585 39.718185 -0.93848509 0.26645762 0.21964978
-30.541603 -20.5144 42.326782 -0.89589119 0.27888742 0.34583348
-9.1528482 -11.050457 72.602264 -0.40773311 0.82939321 0.38191706
-8.5089884 -10.905963 74.102341 -0.2525546 0.96305025 0.093543448
-5.2792096 -11.229068 75.814987 -0.2015855 0.82425523 0.52911866
9.0761032 -12.740059 78.944824 0.1854564 0.76740521 0.61375487
-31.407541 -22.126741 39.582218 -0.95620352 0.26665601 0.12070388
-13.73533 -12.139912 70.112541 -0.55337089 0.69436187 0.46004584
-10.790296 -12.306778 73.126472 -0.43387303 0.77507406 0.45936283
-9.7553358 -11.408045 74.347633 -0.5216223 0.85316026 -0.0052660694
-6.9749136 -10.863429 75.579132 -0.060849879 0.94618887 0.31784278
-5.8233628 -11.885859 76.492538 -0.25720492 0.74662173 0.61351585
6.744421 -12.160001 79.934639 0.10907109 0.91681677 0.38412303
7.9990783 -12.229278 78.961601 0.14192261 0.78655535 0.6009897
-30.010748 -20.60022 42.90456 -0.72045124 0.12988541 0.681234
-23.255394 -14.900054 57.953426 -0.80658758 0.47947061 0.34572303
-2.5074677 -11.120512 77.109299 -0.24875703 0.80591959 0.53722769
8.2484198 -13.329057 80.288223 0.23198923 0.74201375 0.62896472
-30.996431 -22.022312 41.747246 -0.91947353 0.25295249 0.30097073
10.531294 -13.921762 80.0588 0.14734207 0.69142747 0.70726115
-12.472502 -12.410666 72.124794 -0.5055477 0.70841342 0.49251586
-2.3414228 -12.248491 78.858734 -0.23760861 0.77533388 0.58514905
0.63570476 -13.194841 80.913315 -0.07714656 0.75515753 0.65098816
8.9270468 -14.371726 81.193497 0.20154268 0.78246433 0.58917749
11.625253 -14.979286 81.198021 0.16043071 0.74799675 0.6440208
-33.057632 -25.504465 35.458317 -0.97967595 0.13882244 0.14478698
-23.570482 -17.311987 59.912674 -0.8337152 0.39540976 0.38544783
-19.731647 -30.869469 74.501999 -0.80798686 0.15452881 0.56857544
-15.684859 -13.867391 70.36335 -0.64362526 0.61048329 0.46158063
-13.889827 -14.230232 73.030182 -0.56222224 0.62203884 0.54495305
-14.675406 -14.08803 71.782814 -0.61979753 0.61276758 0.49027225
-11.989269 -13.558074 74.097641 -0.49179062 0.66623211 0.56060398
9.8417578 -15.343565 82.302063 0.20310752 0.78388447 0.58674735
-26.669703 -18.266762 52.561317 -0.9007383 0.35732678 0.24695753
12.406053 -15.690265 81.782471 0.22143424 0.65947843 0.71836984
-0.39645451 -14.410697 82.055328 -0.1055389 0.72624511 0.67928612
10.620202 -15.940376 82.703087 0.28775507 0.64446354 0.70842344
12.607225 -17.190516 82.779472 0.22571291 0.61113632 0.75866067
-32.470421 -25.192087 38.70446 -0.96284336 0.24425389 0.11520711
-18.060713 -16.364651 70.08168 -0.70147806 0.53833365 0.46703893
-13.075223 -15.403626 74.836662 -0.47627297 0.5475319 0.68802088
-2.8488488 -14.513117 81.44223 -0.27409512 0.72085041 0.63658983
13.883232 -17.530256 82.950119 0.28511283 0.55872524 0.77880478
-33.475983 -27.808653 36.024067 -0.95702994 0.26116693 0.12603788
-24.46513 -19.621099 60.179855 -0.86017829 0.34408322 0.37643081
-4.4756351 -15.412098 81.677521 -0.34548348 0.66750401 0.65960556
-17.484745 -33.009346 -40.515949 -0.65667027 -0.67906815 0.32810143
-11.124953 -53.29549 -138.76851 0.98702729 -0.00040004068 -0.16055222
-33.445457 -27.861732 37.398052 -0.94041735 0.31137881 0.13659582
-27.447077 -22.588671 54.801453 -0.91856861 0.25338492 0.30336088
11.271278 -17.384113 83.537605 0.17064607 0.5391891 0.8247152
14.368204 -19.605768 83.972755 0.28844315 0.42409399 0.85845488
-33.477486 -28.608179 39.181683 -0.89707685 0.41312489 0.15678357
-25.296017 -21.380547 59.758869 -0.78059256 0.22881176 0.58165318
-25.260731 -20.046783 58.614128 -0.8827042 0.32086608 0.34333399
-15.788557 -17.066824 73.656723 -0.69050795 0.50085896 0.52186126
11.887354 -20.054169 84.497162 0.024518406 0.27488273 0.96116513
12.273441 -18.545219 84.143639 0.1723057 0.46080062 0.87061679
-18.677248 -18.185556 71.025993 -0.74930722 0.43540928 0.49895632
-2.7753956 -16.871912 83.875481 -0.31503347 0.59129167 0.74238002
-5.4188733 -16.847479 82.36232 -0.39882037 0.55726421 0.72828496
-17.972809 -20.081371 73.321693 -0.7474665 0.37081084 0.55117434
16.005955 -22.702612 84.744652 0.38959679 0.33593667 0.85753185
-16.095547 -19.985075 75.885254 -0.69556123 0.3959786 0.59949607
-17.414072 -21.747963 74.784142 -0.75871253 0.29738462 0.57958412
-5.2001719 -19.691349 84.640106 -0.3982597 0.45651695 0.79560137
-16.264025 -22.075592 76.522751 -0.7308076 0.27233127 0.6259042
-3.7176533 -21.207745 86.145653 -0.29675362 0.32314351 0.89861876
-18.191378 -23.767069 75.0811 -0.78779882 0.23669122 0.56863904
-5.1798906 -23.173803 86.097931 -0.42264172 0.2244063 0.87807506
-18.743113 -26.07222 74.679993 -0.84523517 0.098638833 0.52521223
16.827852 -20.94792 83.630791 0.45323259 0.42025721 0.78610688
11.180094 -4.7741818 64.196533 0.1701598 0.91706812 0.36059904
9.0963726 -5.7151532 67.55117 0.14148706 0.91664612 0.3738198
9.2305279 -6.5021544 69.254616 0.18966135 0.8932333 0.40763071
12.224687 -7.0341468 68.574097 0.28212205 0.87171394 0.40065178
9.5898151 -7.8268619 71.648262 0.23654218 0.8599146 0.45232138
-34.865376 -49.599567 -137.02817 -0.75498605 0.65513366 -0.02821199
4.3339324 -6.559886 70.266335 0.0082571283 0.92679304 0.37548164
-12.826732 -7.9428988 64.383072 -0.3978371 0.79688478 0.45464289
0.3212713 -1.5488553 59.163063 0.050367665 0.89339161 0.44644666
-1.3592366 0.40803608 52.506702 -0.11229865 0.96141571 0.25113535
-6.1594057 4.1053276 32.581703 -0.26378873 0.91591811 0.30250549
-17.93458 -8.0169659 57.474926 -0.61633551 0.66513079 0.42158231
-20.423948 -11.516731 58.595375 -0.69055814 0.58323562 0.42774481
-17.911747 -0.9001565 38.044422 -0.57731932 0.79451126 0.18829282
-19.860447 -1.5249841 28.35972 -0.68200988 0.72554904 0.091875568
-24.994869 -6.1033907 22.524084 -0.7015233 0.71176338 0.035466745
-44.146351 -60.499981 -208.34673 -0.8114512 0.58331835 0.035869211
-5.0980129 3.9914203 33.684795 -0.36715835 0.90349525 0.22111334
-25.863108 -10.26752 41.065121 -0.79225528 0.56360245 0.23384573
-29.919041 -44.599693 -96.888931 -0.92574912 0.35478491 0.1308284
-14.47731 -8.1667004 64.264854 -0.15090151 0.82625675 0.54270488
-3.3894897 -0.79314023 56.229984 -0.23750223 0.93923742 0.24784242
-10.08919 -12.104248 -3.1592712 0.19006123 0.80871719 -0.55664462
29.44405 -21.429859 63.883492 0.94018996 0.29934859 0.16258258
21.642883 -3.5901918 37.497517 0.64117897 0.7673654 0.0063268305
-1.7386518 -26.752167 -40.985401 0.59144872 0.78289372 -0.19304392
3.9009023 5.2424288 24.98337 0.15958419 0.9844839 -0.072967686
5.7535238 4.9418006 23.81357 0.23547103 0.96956432 -0.067070454
5.402523 4.7760835 21.893089 0.24403647 0.95829606 -0.14871067
6.6862669 4.3431582 22.125967 0.28096139 0.95250505 -0.11745121
13.186706 1.7255328 22.560394 0.48360837 0.86609685 -0.12648842
14.418185 0.15120938 18.705826 0.54346639 0.81327105 -0.20792915
-4.448904 -26.290766 -27.038908 -0.45333654 0.81032693 -0.37129006
0.82000798 3.0476627 15.53509 -0.09691149 0.78941727 -0.60615885
-1.0392343 4.2305098 17.0289 -0.031950351 0.86243498 -0.50515842
-6.5023818 3.6792338 17.021843 -0.095282488 0.83036441 -0.54901397
-4.6699309 -29.184706 -45.784801 -0.84088039 0.54039401 -0.029908536
-7.4486051 -37.057293 -76.483727 -0.049936388 0.97178382 -0.23052683
-5.5785675 -37.193813 -76.233543 0.42769715 0.83849019 -0.33765265
-4.578742 5.2346425 20.774925 -0.10199983 0.98707128 -0.12363765
-1.9912528 5.6822262 23.29747 -0.011235904 0.9959867 -0.088793345
-31.464727 -45.143345 -118.6458 -0.81228548 0.58290917 0.020228459
-26.518204 -40.921291 -88.660072 -0.19361188 0.95982707 -0.20309228
-10.578765 -6.4277005 63.653904 -0.37858796 0.81907403 0.43103242
-26.155624 -19.868374 56.033398 -0.8977915 0.32076341 0.30179662
-32.910172 -26.32209 37.240028 -0.9647156 0.18845788 0.1838681
-33.739815 -27.884253 33.857765 0.14205655 -0.21040498 -0.96723813
-30.029333 -50.874443 -116.15153 0.8383531 -0.54250163 0.053441659
-29.841558 -50.102612 -114.07066 0.76463521 -0.63807786 0.090496302
-13.309388 -50.607964 -97.998489 0.29747114 -0.94367087 0.1449005
-7.2647648 -39.162483 -56.040058 0.53590375 -0.82400507 0.18390986
-10.051832 -45.635002 -79.442467 0.40427348 -0.89910704 0.16783775
-8.7641306 -44.969681 -79.818359 0.54223514 -0.82519466 0.15822391
-8.5622025 -44.085697 -74.899506 0.49142474 -0.85524547 0.16448985
-9.7568865 -44.524719 -75.355263 0.43746108 -0.87980795 0.18591863
-10.404202 -44.560345 -73.922897 0.37685561 -0.90337747 0.20466799
-8.1017103 -44.154835 -77.421631 0.59438038 -0.79047275 0.14786799
-8.8514929 -43.693432 -72.775467 0.46302682 -0.86938608 0.17255111
-9.5745287 -43.409939 -69.614876 0.4171215 -0.88342649 0.21346503
-8.6659613 -42.616192 -68.610832 0.48706988 -0.85166752 0.19345641
-8.3044195 -41.658875 -65.024391 0.47642839 -0.86049372 0.18046233
-8.5701084 -40.686142 -59.505936 0.48700333 -0.84962678 0.20239092
21.201628 -7.4275184 43.51659 -0.5914216 -0.76016849 -0.26900592
0.8071776 -2.244355 53.226601 0.005727998 -0.95256841 -0.30427077
-3.0505939 -3.0200357 52.780544 0.17457402 -0.96560359 -0.19270128
-8.3997231 -38.423008 -51.091782 0.45834231 -0.86428684 0.20719728
-0.54554349 -2.0124855 51.989983 0.094609208 -0.93943864 -0.32939956
1.7638929 -1.9821131 52.203697 -0.059370525 -0.94725066 -0.31494653
-17.187265 -28.017925 -31.154022 -0.7847501 -0.54729778 0.29091617
-16.339802 -28.367857 -28.930069 -0.7332539 -0.61392969 0.29228264
-1.2237064 -0.6114167 47.329582 0.016059982 -0.97075188 -0.23954755
-0.17796896 -1.3288887 50.719894 0.012476675 -0.95562464 -0.29432276
-31.172361 -26.763321 36.879757 0.95621169 -0.24482624 -0.16037241
-30.763161 -26.653208 40.503464 0.85196507 -0.41310436 0.3217147
1.3008809 -0.69232702 47.679764 -0.027776524 -0.96330321 -0.26697469
-4.2903571 -0.44067734 46.14798 0.07901971 -0.97477925 -0.2087134
-30.865154 -25.522001 38.102261 0.94295406 -0.29460722 -0.15506159
18.053436 -7.5558553 54.344616 -0.54683864 -0.79392201 -0.26581064
-2.0942433 0.1674138 45.193436 0.028621009 -0.9624235 -0.2700403
-2.2601666 -0.26026243 45.512211 0.12476654 -0.94159198 -0.31279033
-30.258406 -25.49227 40.071556 0.93300509 -0.35320231 -0.068917744
-30.44273 -24.448042 37.755432 0.92693156 -0.32763502 -0.18290213
-29.553562 -22.714535 41.652523 0.77931213 -0.48903897 0.39180782
-2.4458976 0.35124442 43.612606 0.06119474 -0.97475189 -0.21474172
-29.757318 -23.746111 39.511745 0.93215388 -0.35366562 -0.077522501
-3.8922899 -31.065344 -32.522465 0.63219404 -0.7514379 0.18886979
-29.041492 -21.026697 38.596886 0.91629505 -0.32920721 -0.22809203
-28.716553 -21.962212 40.683071 0.90990233 -0.41370863 -0.03037931
-29.615026 -54.148632 -168.77293 0.16374128 -0.98143125 0.099907301
-29.245857 -21.85424 39.478809 0.91165477 -0.31445062 -0.26458713
-2.7541881 -30.125496 -33.159851 0.74655765 -0.65295649 0.12766945
-4.2793446 -30.640528 -30.186207 0.53034639 -0.80326563 0.27110347
-28.719769 -21.104959 41.84845 0.87405145 -0.42242727 0.23997763
-2.3788543 -29.127756 -30.573174 0.73707032 -0.66089511 0.14122644
-2.9979215 -29.630484 -29.817554 0.59335333 -0.77061218 0.23256983
-3.1493592 -28.598305 -26.104214 0.59190804 -0.76757944 0.24589978
-27.944628 -19.772043 41.137779 0.88928032 -0.45633447 0.030650461
-27.194998 -17.603928 42.734772 0.81599903 -0.49632895 0.29631612
-1.6455681 -28.100859 -29.136457 0.71254456 -0.68778479 0.13868056
-33.606373 -26.787146 34.209614 -0.49362093 0.31945238 -0.80888104
-15.532777 -9.5183325 57.208439 0.62891984 -0.68435782 -0.36893654
-0.7160657 -26.946388 -30.091553 0.7680496 -0.63655508 0.069982082
-1.7875179 -27.548489 -26.283331 0.71605241 -0.66765285 0.20373653
-26.668833 -17.623632 41.657753 0.88238966 -0.47039312 0.010899233
-1.1300684 -25.787712 -23.064787 0.68201059 -0.68599451 0.25352138
-26.294497 -16.18321 41.035049 0.85043073 -0.5257315 -0.019337073
-0.31313077 -26.296904 -28.102568 0.77259111 -0.61642903 0.15204673
0.12315071 -25.248785 -27.18078 0.7691108 -0.61283344 0.18139406
-1.9671546 -25.015284 -19.642548 0.54553652 -0.76360101 0.34540325
0.7226308 -25.355553 -29.54571 0.75203401 -0.64798814 0.12064911
-11.758779 -7.9562454 59.884716 0.43525001 -0.8149997 -0.38253483
1.2680868 -23.903898 -25.898296 0.68741184 -0.69427603 0.21318011
-25.44389 -15.379699 42.337009 0.81619453 -0.57475024 0.05906482
-0.92023355 -23.568165 -18.182194 0.570876 -0.75482953 0.32300603
-5.2899656 0.37507349 42.566265 0.066260815 -0.94961083 -0.30634743
-26.375128 -11.722328 23.478432 0.76300186 -0.64262545 -0.069718994
-23.870823 -12.705805 43.172794 0.80494535 -0.56454939 0.18261172
-22.482714 -11.609158 42.199856 0.78425652 -0.6140455 -0.088824265
1.0487792 -20.447044 -15.140431 0.68789917 -0.68191165 0.24857843
-25.043615 -10.707134 26.325745 0.7156297 -0.68837255 0.11839564
-0.23864113 -18.648413 -8.8276424 0.42044869 -0.79281598 0.44120941
-2.4860578 -17.32128 -5.1384444 0.2412447 -0.80859083 0.53663939
-22.999786 -8.2193537 25.938215 0.73544973 -0.67470843 0.062306888
-3.8772521 -16.330093 -3.0762432 0.17528616 -0.81558442 0.55144966
-22.903126 -8.0834618 27.632294 0.68118823 -0.73183942 0.019837916
1.3186616 -21.002102 84.871185 0.70467216 -0.45397368 -0.54529363
1.5897671 -17.605135 -9.308341 0.58892012 -0.72391379 0.35933527
