# .PCD v0.7 - Point Cloud Data file format
VERSION 0.7
FIELDS x y z normal_x normal_y normal_z
SIZE 4 4 4 4 4 4
TYPE F F F F F F
COUNT 1 1 1 1 1 1
WIDTH 722
HEIGHT 1
VIEWPOINT 0 0 0 1 0 0 0
POINTS 722
DATA ascii
56.028904 -101.29989 -60.06361 0.35871854 0.53516299 -0.76480168
-38.14114 64.229057 -19.797638 -0.55137771 -0.330228 -0.76611489
-30.147295 63.272789 -15.596721 0.66504544 0.035834782 -0.74594265
-29.316719 61.448128 -15.189097 0.65680492 0.22771633 -0.71885508
-32.039085 62.14851 -18.096098 0.75599831 0.34304553 -0.55748206
-33.270115 61.566277 -19.939846 0.6020155 0.49820885 -0.62399155
56.614899 -89.545151 -57.72887 0.6393925 0.18727554 -0.7457245
-28.204409 62.312469 -13.871935 0.61466539 0.1030076 -0.78203321
-30.666147 61.292217 -16.681425 0.76125127 0.32221532 -0.5627377
56.35025 -90.837708 -58.177269 0.58760804 0.11303307 -0.80121171
-27.121742 60.147148 -13.918032 0.49829662 0.32713136 -0.8029232
-30.211161 59.087776 -17.59326 0.75244206 0.50576144 -0.42194355
-31.940607 60.46365 -19.118553 0.73790306 0.4733716 -0.48105973
-29.656473 59.907753 -15.951077 0.64904523 0.39234179 -0.65177315
-25.356852 56.984634 -14.580759 0.5036487 0.43280968 -0.74767226
-26.827982 58.724369 -14.371685 0.51118958 0.44985703 -0.73233449
-26.965219 56.460686 -16.326128 0.58612823 0.48434117 -0.64951319
-24.5749 56.114197 -14.58902 0.47214594 0.4787477 -0.7401883
-26.043041 54.660133 -16.573271 0.61112076 0.55216718 -0.56713563
-24.223093 53.597198 -16.042227 0.56209368 0.5285871 -0.63611823
-29.974476 53.908195 -23.474039 0.13914011 0.47026756 -0.87148637
-28.501144 52.982487 -24.042913 0.20602395 0.58864236 -0.78169954
-24.191673 51.309334 -18.037827 0.6516428 0.55213398 -0.52010542
-29.993948 51.614548 -23.742565 -0.43068045 0.10919716 -0.89587408
-21.916683 51.821548 -15.473326 0.38506764 0.47859925 -0.78909165
-20.329056 50.586102 -15.708657 0.33163795 0.47950613 -0.81245941
-22.05611 49.714413 -17.343763 0.55344558 0.58037615 -0.59737879
-28.138239 49.383354 -24.707493 -0.39983779 0.041267227 -0.91565645
-26.419403 49.900734 -25.556618 0.11197373 0.48573089 -0.86690682
-26.807404 50.675709 -24.938848 -0.079540998 0.38526183 -0.91937286
-27.118156 48.499714 -25.104303 -0.42168358 -0.081248179 -0.9030956
59.974094 -90.036995 -55.435246 0.55363154 0.1730365 -0.81458604
-22.120342 42.263813 -27.741161 -0.28204545 0.19240583 -0.93990976
-19.636421 41.81152 -28.739843 0.078650177 0.51456988 -0.85383373
-18.402029 40.418137 -29.628035 0.30992255 0.61243522 -0.72723526
-17.359547 38.795025 -30.046345 0.2544699 0.48381516 -0.8373577
1.6024994 32.383266 -24.348917 -0.45787928 0.085665584 -0.88487738
50.61969 -101.70422 -63.289845 0.51891315 0.23391467 -0.82220012
3.2801507 31.114506 -25.413906 -0.44648725 0.13825664 -0.88404423
-7.1694155 25.910597 -35.846069 0.012873059 0.56569463 -0.82451427
-5.4399548 25.458254 -36.129417 0.30515036 0.68524563 -0.66130298
58.622589 -90.74234 -56.719929 0.57245564 0.14132878 -0.80766368
14.136892 19.642313 -32.548977 -0.51153892 0.11409992 -0.85165083
12.276094 19.651001 -31.342346 -0.40881243 0.14087711 -0.90167958
16.845934 19.510458 -34.2859 -0.5096997 0.082110651 -0.85642517
1.6528386 16.128325 -41.295597 -0.29782823 0.40176991 -0.86595571
19.001389 19.367331 -35.121334 -0.40303946 0.15723617 -0.90157419
15.606244 18.580782 -33.306076 -0.53385365 0.096954025 -0.84000009
13.750592 17.749355 -32.530544 -0.38787633 0.30534354 -0.86966503
20.190149 18.260775 -35.998844 -0.46877545 0.16166961 -0.86839646
18.101919 18.231798 -34.917274 -0.43318352 0.20609409 -0.87742651
15.150258 17.051834 -33.492008 -0.47222686 0.27965081 -0.83594096
10.63149 15.959365 -32.509426 -0.10060977 0.55648905 -0.82474089
12.133138 16.039829 -32.595798 -0.23743775 0.47965372 -0.84472215
18.181204 15.706435 -35.559975 -0.38950941 0.3290996 -0.86021847
14.17617 15.083317 -34.101856 -0.34241378 0.52531874 -0.77896929
64.626099 -26.697966 -45.465519 -0.11237546 -0.28827658 -0.9509303
63.587074 -27.062164 -45.044106 -0.23880419 -0.36155006 -0.90125138
22.876522 17.491589 -37.650177 -0.47415558 0.22305465 -0.85171771
40.709049 -92.195015 -69.370377 0.55241787 0.063856073 -0.83111781
20.214066 16.74951 -36.270134 -0.46332318 0.23748128 -0.85377651
12.289632 14.859538 -33.540699 -0.19541806 0.63821518 -0.74464297
24.614565 17.825623 -38.255302 -0.36965397 0.39111552 -0.84284317
16.271181 15.091612 -35.135952 -0.38275877 0.42626685 -0.81962943
27.072426 17.716299 -39.353695 -0.37987703 0.42555019 -0.82134068
22.863449 15.745337 -38.143093 -0.47591668 0.3249228 -0.81726891
26.842035 16.765141 -39.739948 -0.40077212 0.38761383 -0.83014292
20.958599 15.279716 -37.29071 -0.41577184 0.48206621 -0.77119774
18.428049 13.969421 -36.621201 -0.36657843 0.56214225 -0.74136108
15.408668 13.257557 -36.053726 -0.28027079 0.66637617 -0.69093502
23.789324 16.904415 -38.291344 -0.40510029 0.35841641 -0.84108943
18.879087 12.940931 -38.029697 -0.3211607 0.65208936 -0.68675709
16.627121 11.913171 -38.023296 -0.19463268 0.76643944 -0.61211812
31.451128 16.73381 -42.255615 -0.29205292 0.52640301 -0.79850173
24.921909 13.851688 -40.224773 -0.39256033 0.51633447 -0.76111448
32.353138 17.088171 -41.706451 0.045636255 0.80355895 -0.5934732
22.853106 14.267739 -38.890278 -0.40203094 0.48275682 -0.77802122
26.654959 14.82423 -40.468803 -0.4145245 0.4523856 -0.78963077
16.822514 9.9397478 -41.522293 -0.088372134 0.89821327 -0.43058491
18.652254 11.246105 -39.505646 -0.240062 0.78805041 -0.56687462
48.504719 -101.02605 -64.503532 0.57364172 0.099666692 -0.81302017
29.485092 14.229277 -42.464066 -0.41160578 0.50854635 -0.7562812
21.993872 12.658256 -39.609264 -0.33844468 0.63363659 -0.69567221
18.778141 10.653414 -40.787071 -0.16912182 0.82611823 -0.53751886
15.632855 9.623148 -41.876286 -0.0094377985 0.93909293 -0.34353369
53.954788 -25.760052 -53.159607 0.27623492 0.015068945 -0.96097201
33.606586 15.582871 -43.648232 -0.35695511 0.5614199 -0.74658614
30.601295 15.68896 -42.282448 -0.40275142 0.44427392 -0.80025744
27.018711 12.7734 -42.10215 -0.36810967 0.63299322 -0.68103951
21.039766 11.228577 -40.951866 -0.27716047 0.75049454 -0.59995002
29.174349 12.012851 -44.036114 -0.36787441 0.64209855 -0.67259037
24.981184 11.315268 -42.521347 -0.32150379 0.69063145 -0.64781439
21.290096 10.254851 -42.072098 -0.21562965 0.79421335 -0.56809241
16.080893 8.5894156 -44.747002 0.11888996 0.94104981 -0.3166866
30.678415 12.269026 -44.668163 -0.34732208 0.64252341 -0.68303078
19.592211 8.5199614 -44.6063 -0.078143187 0.90829396 -0.41096938
18.07201 9.194931 -42.804432 -0.0590785 0.8744024 -0.48159134
22.014374 9.1940479 -43.925232 -0.20681158 0.86278176 -0.46134216
17.535503 8.2729378 -44.823761 0.032184072 0.94021231 -0.33906469
41.386322 11.015136 -51.866581 -0.32174245 0.69475138 -0.64327466
32.18417 13.213958 -44.57066 -0.39211568 0.55436361 -0.73411608
25.719128 10.078306 -44.438541 -0.26891413 0.77934843 -0.5659517
20.855749 8.2843695 -45.562496 -0.13471766 0.8928113 -0.429813
22.316784 7.6745396 -46.897911 -0.12614067 0.85552484 -0.50216115
40.167831 15.283648 -47.432159 -0.38081446 0.6353687 -0.67177886
33.37352 10.964401 -47.264008 -0.37369666 0.66905475 -0.64243019
28.163151 10.627765 -45.117805 -0.30718812 0.72792292 -0.61299568
43.141567 13.368912 -50.45155 -0.38973284 0.66621554 -0.63581854
41.448486 13.835491 -49.141972 -0.41273192 0.59989512 -0.6854037
30.973701 9.8882294 -47.297459 -0.31357062 0.74583495 -0.58771062
27.694117 8.969923 -46.907761 -0.28549403 0.78225762 -0.55368423
19.622698 7.2684484 -47.595837 0.029229309 0.94261461 -0.33260104
41.887196 13.327971 -50.097393 -0.38250139 0.5864026 -0.71402007
25.502333 8.4081535 -46.701809 -0.20610958 0.81954193 -0.53466797
44.992981 13.861593 -50.990181 -0.27491152 0.620435 -0.73449588
33.299397 10.010863 -48.653061 -0.32576323 0.75751019 -0.5657354
36.991844 10.191587 -50.322857 -0.33679503 0.72574133 -0.59989047
34.8787 9.4499531 -50.095844 -0.31689829 0.73668498 -0.59738648
32.811295 7.6357713 -51.491196 -0.27625608 0.81250685 -0.51333719
41.804466 10.304999 -53.049843 -0.24631797 0.72841299 -0.63932925
44.221035 11.406476 -52.857887 -0.23898289 0.63667464 -0.73316616
37.747784 8.7014494 -52.884449 -0.3058708 0.77585489 -0.55180824
34.19355 8.1235123 -51.533653 -0.31739268 0.79560214 -0.51602226
38.144043 9.5757694 -52.075291 -0.33098111 0.75479645 -0.56633359
35.201 7.3776832 -53.489105 -0.28697464 0.82224745 -0.49148196
44.186993 9.4513931 -54.533962 -0.079141416 0.61502308 -0.78452742
33.946976 6.143352 -54.941448 -0.24530531 0.8567183 -0.4537169
14.146812 4.3913193 -66.039764 0.0054857498 0.93961978 -0.34217626
40.379013 8.8083363 -54.236877 -0.26692986 0.72228575 -0.63800609
53.408314 10.964907 -51.314411 0.56241792 0.14683436 -0.81371105
51.580265 11.503361 -52.227871 0.40100721 0.25404948 -0.88014323
43.550644 8.3899059 -55.584534 -0.054715235 0.66042024 -0.74890012
40.922634 7.5316749 -55.823833 -0.14156914 0.75750268 -0.63729733
37.810059 6.8622236 -55.668457 -0.22825529 0.8337816 -0.50270051
54.322487 10.253105 -50.620407 0.76571238 0.21650061 -0.60565013
15.494421 3.4791293 -69.166763 -0.095078662 0.93652791 -0.33745453
31.875631 5.2371778 -55.666725 -0.18213063 0.90249652 -0.39029273
52.208282 8.7423878 -52.538319 0.55270207 0.094648466 -0.82798678
44.246571 7.2302628 -56.350807 0.12761675 0.51251876 -0.84913981
42.520844 6.608561 -56.740257 0.054026615 0.63295102 -0.77230442
36.855167 5.3035336 -57.856316 -0.15436368 0.83715361 -0.52473402
34.492519 4.8030534 -57.888245 -0.15897654 0.88672352 -0.43410584
46.988411 5.2232366 -56.598518 0.40654781 0.24712606 -0.87957233
44.000343 5.4605651 -57.285023 0.24825305 0.46772969 -0.84829199
39.607025 6.3079371 -57.32391 -0.085484318 0.78202295 -0.61735928
50.95639 6.7581296 -53.481762 0.55510443 0.090261154 -0.82686877
50.984772 4.9935856 -53.669182 0.60757232 0.11167878 -0.78637379
48.667835 7.3424473 -54.846149 0.44727784 0.28907496 -0.84639138
37.788586 4.3620934 -59.366837 -0.0098032495 0.76289487 -0.64644814
40.355724 4.2760706 -59.324406 0.051646002 0.68878537 -0.72312331
35.511017 3.5909967 -60.499935 -0.032969788 0.84148216 -0.53927809
48.422981 5.4649763 -55.647202 0.59094483 0.13186917 -0.79586101
45.547897 3.7482016 -57.53281 0.46245065 0.2275144 -0.85695779
37.97995 3.0674868 -60.736549 0.1533692 0.66945267 -0.72685003
21.332367 1.0853115 -71.606438 0.49430019 0.78484493 -0.37374547
24.560671 0.96588737 -68.55938 0.30931973 0.85902762 -0.40791267
21.764187 1.7135098 -69.210762 0.34590513 0.87932658 -0.32731417
21.614231 0.26278561 -72.16198 0.56153035 0.64751351 -0.51517946
19.502716 0.24052666 -74.319 0.4196198 0.65018833 -0.63338327
41.302052 4.8048611 -58.826721 0.25458401 0.58351386 -0.77116704
24.210571 0.19614433 -70.130669 0.48318788 0.67446053 -0.55824053
40.722656 3.1407008 -60.169453 0.27122018 0.46803302 -0.84106165
24.510279 -1.0442964 -71.200478 0.45061058 0.64677739 -0.61532843
20.661354 -0.33223647 -74.068611 0.59223366 0.54644442 -0.5921638
17.738987 -0.46420383 -75.5047 0.22794017 0.62929189 -0.74299061
19.335487 -1.8587081 -76.507545 0.36368152 0.43789372 -0.82218301
49.438194 3.2868142 -54.76601 0.57175475 0.051443342 -0.81881011
48.179813 2.7017851 -55.859745 0.58067095 0.11227357 -0.80635965
42.768814 2.2657928 -59.69104 0.46003449 0.32643571 -0.82571667
28.575825 -0.017813215 -67.692429 0.30417976 0.74780685 -0.59013516
27.116453 -1.2024236 -69.790161 0.42587289 0.61586154 -0.66283244
26.287046 -0.40841764 -69.396927 0.3355417 0.75009596 -0.56988406
25.90662 0.33212945 -68.694794 0.37186134 0.74535435 -0.55332261
22.386398 -0.16405535 -72.291245 0.39363569 0.75099218 -0.5301525
49.979256 3.9231524 -54.438946 0.57583082 0.031560313 -0.8169595
50.141479 1.4869269 -54.639122 0.58356065 0.066539161 -0.80933899
32.038239 0.045016948 -65.770081 0.36247829 0.60738307 -0.7068913
29.528347 -0.76001149 -67.904663 0.42713684 0.58762491 -0.68720531
25.689543 -1.4356097 -71.047867 0.44807893 0.54894108 -0.70561242
21.929941 -1.8805467 -73.952316 0.543432 0.49850449 -0.67540723
48.857151 1.2199148 -55.355999 0.56763238 0.052098494 -0.82163203
47.172146 1.7910107 -56.707985 0.58458793 0.11613376 -0.80297571
37.489609 -0.79410744 -63.83736 0.47237372 0.34347078 -0.81172085
36.888821 1.4140904 -62.620361 0.26053405 0.64777195 -0.71590048
45.888386 -93.263977 -65.705627 0.57372957 0.058451544 -0.8169564
39.485283 -0.82353657 -62.401588 0.53425127 0.21077721 -0.81862599
34.663338 -0.15469147 -64.718346 0.36931369 0.48183233 -0.79463506
24.371635 -2.3904164 -72.523666 0.54793161 0.38727579 -0.74147725
23.036234 -1.7993025 -73.326843 0.54401982 0.47995025 -0.6882515
20.573524 -2.2338417 -75.432022 0.62921286 0.35490805 -0.69147056
47.015842 0.53054953 -56.950798 0.64200258 0.040468682 -0.7656337
45.986294 -0.62187988 -57.860634 0.59033197 0.066071443 -0.80445176
32.21262 -2.578784 -67.466072 0.451161 0.43278417 -0.7804817
30.026258 -2.3597398 -68.56369 0.48781028 0.37116241 -0.79011369
22.46641 -3.6716466 -74.520988 0.55649257 0.17838052 -0.81147796
39.842751 -93.855171 -69.986435 0.52913821 0.018531378 -0.8483333
48.089878 -0.89421964 -56.080376 0.57768101 0.086341776 -0.8116833
32.977562 -1.4358629 -66.504044 0.44755408 0.43501505 -0.78131759
20.339411 -3.795963 -76.132355 0.57399684 0.094804429 -0.81335104
49.910152 -0.7510398 -55.016663 0.56806391 0.07657674 -0.81941408
43.969028 -1.3793147 -58.976562 0.55722201 0.10672465 -0.82347643
27.829382 -2.4967864 -70.278381 0.52712154 0.37565336 -0.76225168
24.331079 -4.5943408 -73.485298 0.58767205 0.18205792 -0.78835052
36.716209 -3.1180279 -64.928123 0.52201164 0.1730928 -0.8351903
34.665878 -2.9584577 -65.928879 0.53225803 0.25401822 -0.80757427
26.600147 -3.7698979 -71.581306 0.52583116 0.29905885 -0.79628217
23.413687 -5.6743445 -74.283379 0.54025865 0.057710782 -0.83951765
45.184544 -1.98174 -58.718212 0.58889574 0.12060873 -0.79915917
27.217848 -6.8232164 -71.682388 0.54269147 0.06775251 -0.8371951
49.21685 -3.6786342 -55.91185 0.57609963 0.10937066 -0.81002915
44.396481 -2.8792229 -59.203873 0.54210138 0.1139186 -0.83255541
35.821152 -4.7538562 -65.57605 0.55652726 0.063872829 -0.82837051
29.41614 -4.5301824 -69.886551 0.58205599 0.19745374 -0.78881103
28.112452 -5.431242 -71.028938 0.5732255 0.14451185 -0.80655366
25.493017 -4.5853629 -72.48204 0.55452204 0.20208062 -0.80725998
22.676662 -8.1077042 -74.804733 0.57283145 0.093876883 -0.81427962
47.841923 -2.4435477 -56.410267 0.60877651 0.10751022 -0.78602332
45.811035 -4.4725218 -58.502655 0.59155822 0.034015011 -0.80554444
25.105022 -6.8622098 -72.943443 0.56432319 0.033928897 -0.8248564
46.719925 -3.7294297 -57.511494 0.62074095 0.094115071 -0.7783463
29.865669 -6.2818742 -69.509789 0.56941128 0.080922462 -0.81806016
28.806908 -7.5173283 -70.663879 0.59694338 0.094162449 -0.79673839
27.894024 -8.0060225 -71.3564 0.5393874 0.026200885 -0.84164995
36.046329 -7.06038 -65.61235 0.54684126 0.076331928 -0.83374941
43.694305 -4.5434651 -59.732052 0.57687598 0.074646667 -0.81341374
19.8085 -8.3966618 -76.863289 0.56264693 0.13170061 -0.81613928
53.445251 -6.1460457 -52.991829 0.59494668 0.073474824 -0.80039984
45.691978 -5.6288962 -58.49419 0.58635741 0.05067328 -0.80846602
46.734119 -5.5304971 -57.563381 0.55703878 0.099753797 -0.8244738
46.452988 -7.1539154 -57.850842 0.58502638 0.061985742 -0.80864197
44.678528 -7.1391888 -59.517899 0.59151798 0.10616192 -0.79927218
29.582108 -8.9889679 -70.148781 0.55806065 0.038018953 -0.82892877
22.444014 -10.221561 -75.33786 0.57803887 0.065340258 -0.813389
48.219189 -5.8644876 -56.898354 0.60531473 0.087074712 -0.79120916
45.210968 -101.81021 -67.036484 0.59177262 0.18195653 -0.78530049
20.338463 -10.433177 -76.681335 0.54881239 0.06855084 -0.83313012
45.530582 -8.238492 -58.98946 0.66281903 0.080666609 -0.74442184
44.55204 -9.1270895 -59.757225 0.6036694 0.097628415 -0.79123437
42.379665 -8.2459831 -61.172665 0.55766249 0.089367971 -0.825243
60.461788 -92.15683 -55.384651 0.56612957 0.057662018 -0.82229704
30.620401 -11.336082 -69.650391 0.58337271 0.060252465 -0.80996656
24.589224 -9.6252642 -73.596046 0.57838452 0.088916987 -0.81090391
47.664547 -8.2427559 -57.403755 0.58129811 0.044452842 -0.81247562
19.752062 -11.520098 -76.995499 0.18761598 -0.025287261 -0.9819169
52.458691 -7.5756936 -53.937607 0.59302282 0.095229253 -0.7995345
51.060738 -7.7493391 -54.73481 0.5797016 0.077900738 -0.81109649
41.805058 -10.360163 -61.635521 0.55066013 0.053960953 -0.83298355
47.281914 -94.10881 -64.868881 0.57203293 0.080358274 -0.81628478
25.997896 -12.686166 -73.061852 0.56937039 0.07876581 -0.818299
20.838022 -13.089091 -76.747597 0.56287539 0.077243812 -0.82292444
43.153084 -10.522482 -61.100273 0.55039006 0.041455846 -0.8338778
41.835079 -93.927994 -68.678009 0.57370234 0.031117609 -0.81847256
23.201483 -11.910154 -74.716675 0.57678372 0.06938839 -0.81394464
52.730736 -25.563944 -53.823986 0.24132475 -0.085435845 -0.96667629
19.985352 -13.460395 -76.670845 -0.016067507 -0.16688511 -0.98584545
51.000198 -102.50943 -63.750908 0.37201542 0.58735788 -0.71875954
49.298061 -102.7207 -64.444054 0.46362501 0.42752552 -0.77606302
55.359318 -10.346389 -51.944172 0.56693989 0.14546864 -0.81081319
52.205032 -10.489555 -54.378231 0.57202095 0.073416412 -0.8169468
62.398594 -94.989136 -54.257694 0.57667041 0.092907593 -0.81167686
27.242222 -13.386614 -71.964111 0.56614816 0.074487574 -0.82093114
24.682888 -13.69274 -73.927559 0.54368436 0.059266593 -0.83719462
23.452019 -14.244635 -74.79702 0.59170073 0.091122672 -0.80099124
39.150444 10.643933 -51.139435 -0.37024805 0.73837656 -0.56366342
53.387951 -9.4146509 -53.202114 0.62789392 0.10685351 -0.7709291
42.182087 -12.822717 -61.628525 0.59156531 0.10083124 -0.79992718
36.982471 -11.946022 -65.304268 0.58059782 0.068918139 -0.81126839
21.22764 -15.847098 -76.615311 0.54884851 0.077268653 -0.83234304
29.163977 -15.193846 -71.105927 0.53204596 0.058780488 -0.84467274
62.733681 -93.123718 -53.937416 0.54687977 0.021849975 -0.83692598
51.332909 -11.473161 -55.044849 0.57546943 0.11080292 -0.81028247
44.062592 -96.07988 -67.178612 0.56622165 0.068882816 -0.82136971
53.026928 -13.206568 -53.779942 0.61101276 0.03877949 -0.79067028
51.130352 -13.803134 -55.549484 0.60905826 0.0550212 -0.7912147
23.9566 -16.182924 -74.763519 0.58189583 0.12158763 -0.80412292
47.786411 -102.16786 -65.249947 0.57371151 0.22166166 -0.78849298
50.144932 -96.045555 -62.996571 0.56498575 0.064721979 -0.82255822
20.269096 -17.093546 -76.751869 -0.0026155168 -0.014295158 -0.99989444
50.102226 -14.450918 -56.211079 0.56392068 0.063367143 -0.82339424
40.456093 -96.094772 -69.507187 0.55046463 0.090483867 -0.82994056
64.297707 -96.360222 -53.127689 0.54868358 0.11924414 -0.82748246
21.099918 -17.598299 -76.746826 0.39140493 -0.031288803 -0.91968644
61.144249 -96.434464 -55.438583 0.57390028 0.11109774 -0.81135434
47.229412 -102.86212 -66.253326 0.53619182 0.52503556 -0.66093564
50.939106 -98.52887 -62.764671 0.57921672 0.07240773 -0.8119514
46.908722 -95.785446 -65.274719 0.56355107 0.078972243 -0.82229775
43.905235 -97.622559 -67.416779 0.57958543 0.087304763 -0.81022131
48.356354 -15.04106 -57.295666 0.56477493 0.12137892 -0.81626987
23.815966 -17.881084 -75.083504 0.5538249 0.032642893 -0.8319931
20.350466 -18.021852 -76.581924 0.068877012 -0.077219851 -0.99463218
21.527952 -18.941669 -76.413834 0.41767636 0.028483402 -0.9081493
46.352444 -97.099243 -65.552223 0.53910047 0.057670489 -0.84026474
54.581272 -17.018923 -53.167316 0.60507816 0.088178478 -0.79126799
49.141464 -16.852074 -57.259678 0.6114018 0.049648006 -0.78976136
33.654022 -18.845638 -68.146362 0.55687094 0.046719614 -0.82928407
32.718704 -18.963438 -68.909004 0.58166003 0.10539747 -0.80657482
42.53577 -97.498627 -68.552673 0.58123189 0.11619673 -0.80539918
41.699615 -99.129044 -69.1091 0.57782966 0.061182652 -0.81386089
52.307861 -16.366976 -54.507057 0.59919477 0.015896238 -0.8004455
60.772041 -98.468597 -55.842632 0.54890537 0.11573564 -0.82783341
51.374378 -18.581646 -55.020802 0.45014751 -0.073615618 -0.88991463
42.201046 -18.096935 -62.082512 0.61424416 0.074142061 -0.78562528
39.81966 -19.303486 -63.999207 0.58167207 0.093093961 -0.80807865
35.873337 -20.337067 -67.020279 0.58513397 0.08474306 -0.80649662
53.777676 -18.783092 -53.97842 0.55521166 0.087150082 -0.82713056
43.322605 -17.974367 -61.04438 0.59736568 0.078685574 -0.79809946
53.919014 -20.633446 -54.064014 0.35922736 -0.024563365 -0.93292677
41.300392 -21.062307 -63.355167 0.60941714 0.23588511 -0.7569471
32.101379 -21.276514 -69.598717 0.60848475 0.07310874 -0.79019076
26.037653 -23.33713 -73.980377 0.55651844 0.060484681 -0.82863069
22.695143 -21.615301 -76.219612 0.50527906 0.10407544 -0.85665703
22.395878 -23.194448 -76.697647 0.46238267 0.087391607 -0.88236326
56.131363 -19.863659 -51.972916 0.66944826 0.089508153 -0.73744649
45.088528 -22.552132 -60.48777 0.50223225 -0.050975207 -0.86322898
43.207844 -20.408062 -61.691704 0.56642467 0.064653307 -0.82157356
42.363346 -21.470203 -62.09071 0.55981064 -0.012308387 -0.82852918
35.05344 -22.589058 -67.628487 0.53492504 0.043046024 -0.84380227
32.608116 -23.288395 -69.470779 0.65970629 0.028590022 -0.75097954
30.83703 -22.818712 -70.664787 0.53271848 0.073197991 -0.84312105
20.875978 -21.780792 -76.511917 0.087393232 0.050311886 -0.99490255
33.741894 -23.694183 -68.300667 0.55108428 -0.053391777 -0.83273971
23.563831 -23.607752 -75.453957 0.58338875 0.043443471 -0.81103033
23.860794 -25.807354 -75.571396 0.56418622 0.05511912 -0.82380569
56.015633 -20.945421 -52.341797 0.64342535 0.11747044 -0.75644195
43.894783 -23.302719 -61.000244 0.44043654 -0.090633646 -0.89319718
36.337803 -25.043379 -66.799126 0.49818933 -0.10111729 -0.86115187
33.979511 -25.478062 -67.572609 0.46869692 -0.27956417 -0.83795416
22.338774 -25.399551 -76.687737 0.37572545 -0.059986513 -0.92478752
57.976658 -23.828449 -51.194405 0.60793614 0.089823902 -0.78888857
55.712761 -22.90819 -52.868187 0.58823717 0.050050303 -0.80713814
53.489182 -24.105564 -53.417496 0.33313325 -0.052986067 -0.9413898
22.307325 -27.150406 -76.361107 0.46386021 -0.015703546 -0.88576925
47.529076 -25.056505 -58.652466 0.65497923 0.15602438 -0.73936367
54.575203 -24.198025 -53.566872 0.43403736 -0.015046764 -0.90076917
67.151123 -23.849779 -44.323212 0.58072639 0.067208514 -0.81131983
68.325485 -25.689388 -44.139153 0.5666824 0.10310759 -0.8174594
66.036644 -24.973766 -45.239471 0.44446203 -0.0092253098 -0.89575028
48.139004 -97.8032 -64.726204 0.54103589 0.048149981 -0.83961993
65.33255 -25.760899 -45.139282 0.13517044 -0.24316928 -0.96051943
59.356991 -25.852463 -50.401852 0.57920635 0.099366069 -0.80910218
57.927292 -25.532274 -51.385998 0.56664699 0.063464589 -0.82151288
55.70911 -26.705601 -53.090584 0.39879122 -0.022035506 -0.91677701
57.570198 -26.624399 -51.677692 0.56157368 0.082413554 -0.82331222
46.786446 -98.838997 -65.606049 0.5704394 0.078985997 -0.81753296
58.241936 -28.127619 -51.512669 0.54078442 0.078825615 -0.83745968
23.890533 -31.9321 -76.167358 0.45135391 0.079653554 -0.88878286
68.055901 -26.956608 -44.32679 0.51469827 0.0028350689 -0.85736668
66.653687 -26.790066 -44.953583 0.23778185 -0.089791037 -0.96715945
69.792252 -28.352253 -42.928726 0.54882371 0.02440376 -0.83558196
67.762581 -28.444906 -44.50843 0.44316858 -0.10306966 -0.89049321
67.180443 -29.366425 -44.230862 0.2223054 -0.12935251 -0.96635824
60.554111 -28.834909 -49.964146 0.57131135 0.050117303 -0.81920183
58.627018 -29.224934 -51.243984 0.59275025 0.042396639 -0.80426967
49.895241 -29.855886 -57.641106 0.52937865 0.13350755 -0.83781499
24.103443 -34.015095 -76.231491 0.47446573 0.054421976 -0.87859017
68.312309 -29.919567 -43.949875 0.35260609 -0.032218546 -0.93521702
23.658424 -36.182434 -75.993668 -0.016379684 -0.10547905 -0.9942866
70.581345 -30.223553 -42.813217 0.54532295 0.080785014 -0.83432412
50.227173 -32.126873 -57.793259 0.50127506 0.082271628 -0.86136794
47.383987 -32.801617 -59.864769 0.58879912 0.14956303 -0.79432142
59.297882 -32.034786 -50.958218 0.59057111 0.1028025 -0.80041075
57.388203 -31.327305 -52.311417 0.53680092 0.085336819 -0.83938211
43.50378 -99.428589 -67.893013 0.58834708 0.12890409 -0.79826784
24.322819 -35.692162 -76.012886 0.46824604 -0.012830031 -0.88350493
72.619499 -31.868757 -41.233288 0.60459256 0.084695198 -0.79201931
62.052567 -33.406406 -49.386108 0.61860359 0.11139601 -0.77776641
49.216927 -33.05164 -58.341087 0.59156322 0.10123949 -0.79987711
69.838821 -32.655289 -43.498383 0.46898088 0.017321795 -0.88303846
47.725754 -34.159603 -59.680141 0.59427863 0.067065574 -0.80145812
52.307693 -35.658646 -56.717587 0.52909184 -0.078566134 -0.84491962
69.2463 -33.591286 -43.241005 0.20965676 -0.15320125 -0.96569842
48.687428 -37.582481 -59.109337 0.59054404 0.042759437 -0.8058719
52.839073 -27.186041 -53.486374 -0.14153562 -0.26722622 -0.953183
69.947861 -35.201687 -42.868752 0.30620399 -0.032076824 -0.95142537
51.270611 -36.519329 -57.28698 0.55239546 0.038220193 -0.83270556
50.252968 -35.255466 -57.950191 0.57495606 0.033653807 -0.81749183
63.788685 -97.81601 -53.841732 0.53608942 0.19576541 -0.82114804
61.986813 -98.438087 -55.078289 0.51424873 0.18829553 -0.83671564
25.429453 -39.64183 -75.798599 0.56063443 0.071088895 -0.82500631
28.166119 -40.772022 -73.954651 0.56961715 0.11683945 -0.81356299
27.476852 -41.736004 -74.396446 0.52460331 0.026753647 -0.85092634
25.845413 -41.873817 -75.622246 0.54459393 0.090744197 -0.8337763
24.958536 -40.585709 -75.749451 0.40945661 0.015074786 -0.9122051
72.180687 -37.760967 -42.221237 0.52873963 0.072488517 -0.8456831
54.632305 -98.056755 -60.124516 0.55565321 0.070933565 -0.82838273
27.043608 -43.857685 -74.74366 0.57483017 0.075269863 -0.81480348
26.024191 -43.975864 -75.58905 0.48736691 0.037381515 -0.87239677
71.719704 -39.69968 -41.734612 -0.29375005 -0.16641921 -0.94128394
74.517365 -39.048298 -40.716141 0.58033431 0.10976601 -0.80694699
65.391327 -40.221218 -47.324554 0.60051465 0.067143477 -0.79678971
55.854622 -41.555408 -54.409119 0.55500168 0.21610495 -0.8032881
54.340832 -41.224014 -55.500744 0.59161478 0.10694334 -0.79909641
72.728508 -39.948963 -42.00536 0.44301927 -0.051611904 -0.89502519
53.002346 -42.940765 -56.69426 0.56150508 0.0473372 -0.82611823
27.233858 -45.180141 -74.948723 0.47168329 0.10547272 -0.87543726
74.878059 -41.29496 -40.563 0.53022671 0.012161921 -0.84776872
66.989845 -41.902409 -46.193333 0.67348439 0.10857514 -0.73118412
64.83004 -41.897404 -47.852966 0.58811897 0.061622642 -0.80642343
66.040131 -41.850819 -47.003456 0.60295624 0.085532524 -0.79317582
63.805225 -42.144482 -48.633213 0.58510894 0.043094572 -0.80980885
54.671192 -43.952991 -55.413097 0.58402407 0.04152764 -0.81067342
42.636742 -44.50386 -63.97649 0.56522155 0.1355305 -0.81372976
26.230032 -47.025745 -75.387878 0.30257055 0.03017679 -0.95264912
61.327148 -42.370167 -50.398464 0.55958134 0.038193777 -0.82789487
73.109428 -41.633282 -41.30859 0.19208877 -0.095080145 -0.97676075
39.452194 -45.139782 -66.187416 0.49329671 0.054358065 -0.86816108
65.69191 -43.454571 -47.378429 0.57195193 0.065727741 -0.81764954
64.27523 -43.951221 -48.398037 0.59385431 0.10775726 -0.797324
30.241152 -45.311691 -72.659599 0.58768153 0.065445229 -0.80644113
77.551788 -44.523949 -38.930023 0.59347117 0.071768887 -0.80164909
76.243279 -43.050747 -39.606457 0.59779507 0.096683212 -0.79579729
74.480606 -43.460033 -41.178226 0.35153252 0.0088969739 -0.93613338
74.15493 -45.8209 -40.568386 0.096847504 -0.13463941 -0.9861505
62.836128 -43.844849 -49.620663 0.52368164 0.030482143 -0.85136855
29.999161 -48.024494 -73.10009 0.56359154 0.05685148 -0.82409495
27.287933 -48.46006 -75.230904 0.47691727 -0.0067636888 -0.87892216
65.904442 -45.325867 -47.433212 0.59308028 0.097952329 -0.79916281
40.416416 -46.076183 -65.998352 0.55118322 0.077950515 -0.83073509
75.71257 -44.762383 -40.435822 0.58808994 0.032104384 -0.80815804
64.151566 -45.279026 -48.765297 0.5809024 0.11669385 -0.805565
62.086922 -45.036205 -49.782925 0.35455006 -0.013872921 -0.93493414
52.931774 -46.641903 -57.018055 0.55145323 0.094931677 -0.82878661
51.727062 -45.443043 -57.658962 0.567743 0.061461616 -0.82090825
49.314259 -46.406372 -60.173302 0.5782215 0.13847557 -0.80404258
50.953934 -47.581333 -58.052395 0.61396074 -0.083687298 -0.78488761
40.383732 -47.831406 -65.956589 0.49865645 -0.0063948855 -0.86677605
26.215824 -48.706829 -75.409073 0.16806147 -0.018544786 -0.98560202
76.951653 -45.398918 -39.275307 0.58870894 0.031173123 -0.80774385
76.803169 -46.468102 -39.550671 0.51701599 0.04073156 -0.85500604
75.046463 -46.193378 -40.602619 0.29549888 -0.22184242 -0.92922884
63.745541 -46.415707 -49.403118 0.4986859 0.00050395413 -0.86678261
50.470798 -48.186333 -58.273865 0.49425942 -0.19626795 -0.84686863
44.553951 -48.936466 -63.232605 0.56498569 0.029844515 -0.8245607
29.01552 -49.370991 -73.703751 0.57698315 0.04355929 -0.81559366
27.371454 -50.479332 -75.128265 0.5399943 0.064353757 -0.83920485
63.033115 -47.624313 -49.384605 0.29748577 -0.12526672 -0.94647264
30.384901 -49.843262 -73.137222 0.53444856 0.057792008 -0.84322286
74.989311 -47.105415 -40.18676 0.29585505 -0.023257351 -0.95494968
65.874207 -47.297604 -47.621555 0.59927839 0.050047785 -0.79897475
64.917656 -48.225166 -48.243259 0.55011457 -0.00071749522 -0.83508891
54.159107 -48.76012 -56.283348 0.57373947 0.038246304 -0.81814432
52.071892 -49.123386 -57.670898 0.48175254 0.030203586 -0.8757866
64.73632 -50.118835 -48.638821 0.42284864 -0.0036796383 -0.90619284
53.54113 -51.017628 -56.903728 0.51065922 0.051495325 -0.85823977
28.632828 -54.137104 -74.86705 0.58636492 0.12749171 -0.79995126
27.942745 -52.614479 -74.850952 0.50032485 0.11121523 -0.85866535
34.256897 -83.10099 -73.163933 0.5598495 0.078631096 -0.82485491
52.497631 -51.728745 -57.36314 0.39123255 -0.0016632051 -0.92029035
68.99894 -50.195953 -45.512852 0.60125834 0.081282467 -0.79490983
63.844929 -51.600513 -48.290695 -0.019552846 -0.21751863 -0.9758603
54.04018 -52.505821 -56.702702 0.52757829 0.077834249 -0.84593326
29.240499 -55.214146 -74.591156 0.60962284 0.036837228 -0.79183525
62.268425 -98.929451 -55.309135 0.37024575 0.56029487 -0.74093705
65.105934 -52.730587 -48.287952 0.3662225 0.0025433849 -0.93052387
58.596954 -99.318878 -57.405548 0.56423503 0.10672344 -0.81868732
71.918556 -52.385052 -43.482376 0.57075727 0.20088869 -0.79616576
67.99678 -53.006702 -46.733822 0.58297825 0.060022205 -0.81026763
53.70755 -99.582512 -60.952393 0.56027293 0.11818152 -0.81983376
30.872639 -54.493439 -73.050697 0.59268177 0.0657873 -0.80274552
29.283745 -57.219959 -74.359253 0.48113385 -0.011069383 -0.8765772
28.68314 -56.008091 -74.795219 0.46168742 -0.088698506 -0.88259691
66.63266 -55.186481 -47.856075 0.47134617 0.002294051 -0.88194531
65.673683 -55.264011 -48.003098 0.16062345 -0.13183518 -0.97817159
52.019783 -99.327721 -61.946705 0.56780469 0.10011808 -0.81705219
80.512306 -54.124641 -37.623207 0.60653454 0.08827696 -0.79014117
70.306396 -52.646408 -44.757607 0.58681768 0.077306539 -0.80602026
69.522377 -54.668301 -45.407669 0.60438502 0.036737848 -0.79584491
53.903992 -55.455868 -56.967136 0.42601544 0.052845944 -0.90317118
29.260189 -58.624695 -74.238106 0.28965691 -0.033453837 -0.95654571
77.73101 -54.337734 -39.402107 0.45876065 -0.052368719 -0.88701528
68.081833 -57.105511 -46.711582 0.59881097 0.08778052 -0.79606527
54.649544 -55.32019 -56.600689 0.57369721 0.066141553 -0.8163926
31.045345 -57.734348 -73.234154 0.59935093 0.071953446 -0.79724598
30.502266 -59.10207 -73.91893 0.50844002 0.035513975 -0.86036474
68.424347 -55.539177 -46.320419 0.60975921 0.064458966 -0.78996116
70.864182 -57.513786 -44.929695 0.57640958 0.09949705 -0.81108093
54.706528 -57.397114 -56.607441 0.55092865 0.027531456 -0.83409804
79.931129 -55.635311 -38.187607 0.51631069 0.024897698 -0.85603935
29.580359 -60.344059 -74.220047 0.44483018 0.0035550967 -0.89560789
81.471207 -56.986347 -37.073906 0.59943801 0.099834599 -0.79417068
78.565147 -56.25428 -38.667778 0.3636429 -0.082715914 -0.92785877
67.648918 -58.068283 -47.182587 0.499349 0.043375839 -0.86531442
32.270821 -61.84539 -72.717781 0.53791612 0.027628707 -0.84254545
30.197792 -61.751637 -74.07341 0.5609675 0.10708439 -0.82088274
79.563339 -57.241077 -38.425163 0.48902389 -0.0068328828 -0.87224364
66.774101 -58.647141 -47.21661 0.14692779 -0.13280834 -0.98019087
79.65152 -58.132637 -38.062206 0.40288711 -0.027918523 -0.91482377
56.798866 -60.081886 -55.296036 0.56684023 0.049043003 -0.82236671
60.255394 -99.519341 -56.660252 0.41339734 0.42383015 -0.80589741
32.573917 -63.715862 -72.643562 0.55547112 0.082101397 -0.82747281
30.762253 -63.684494 -73.960854 0.55102634 0.010873623 -0.83441693
56.74379 -62.997627 -55.694279 0.59910965 0.048534036 -0.79919457
34.786964 -63.653889 -71.15226 0.57818985 0.054046512 -0.81411028
70.290619 -60.224579 -45.562916 0.58700949 0.053218983 -0.80782896
67.740265 -61.981037 -46.792572 0.12301476 -0.069174238 -0.98999107
32.195927 -64.915489 -72.965324 0.51268917 0.078643106 -0.85496497
80.343658 -59.602402 -38.009449 0.5135535 0.10981245 -0.8510018
59.143944 -61.126774 -53.718292 0.58343571 0.050010953 -0.81061816
30.736496 -64.953987 -73.611404 0.27052853 0.002849228 -0.96270776
70.160049 -61.653805 -45.579132 0.60118371 0.032672394 -0.79844266
58.58408 -63.740479 -54.351398 0.57824302 0.086808771 -0.81123316
31.645674 -65.914757 -73.582687 0.46266001 0.10753473 -0.87998974
68.611229 -60.344769 -46.798679 0.41134238 -0.0044241711 -0.91147023
81.456604 -62.666836 -37.807804 0.62051558 0.057742875 -0.78206533
38.091301 -67.360672 -69.291595 0.59758669 0.076215416 -0.79817373
37.408016 -66.628387 -69.846458 0.56040341 0.070049152 -0.82525218
83.610512 -64.284035 -36.122074 0.58113354 0.043210641 -0.81266022
82.442024 -62.514469 -36.80228 0.63174129 0.10187136 -0.76845634
81.650414 -64.71582 -37.328796 0.53391409 -0.068410754 -0.8427667
71.448067 -65.624725 -45.24234 0.54638904 0.082979754 -0.83341068
59.582336 -65.901413 -53.847595 0.58156884 0.048979986 -0.81202132
47.995495 -67.091812 -61.904335 0.52449417 0.027360378 -0.85097426
31.289871 -67.868271 -73.59079 0.26089358 0.024195483 -0.96506429
31.934719 -67.328041 -73.564018 0.41856736 -0.072480813 -0.90528888
69.211418 -64.487732 -46.50565 0.43757528 0.023207024 -0.89888221
57.239872 -64.520615 -55.177113 0.51160926 0.027428389 -0.85878038
42.366352 -67.026016 -65.894958 0.53601414 0.19873407 -0.82048374
58.101517 -65.603348 -54.968651 0.57778335 0.08916083 -0.81130564
41.706608 -69.420296 -67.462395 0.47921571 0.2945292 -0.82680398
36.700027 -69.650551 -70.207794 0.57553381 0.068237558 -0.81492603
38.237202 -70.080978 -69.130745 0.5453282 0.094151512 -0.83291817
34.403664 -71.007172 -72.144585 0.580715 0.045438256 -0.81283796
59.202309 -67.576981 -54.254993 0.59877199 0.057691474 -0.79883909
48.297352 -68.867287 -62.038223 0.5558458 0.11033422 -0.82393074
44.820206 -68.370476 -64.669678 0.6209439 0.066410817 -0.78103667
38.97834 -68.649452 -68.571892 0.57175678 0.01898312 -0.82020348
46.272728 -67.706772 -63.332371 0.58377576 0.045433056 -0.81064284
43.975868 -69.001854 -65.431473 0.6290279 0.16905065 -0.75877911
40.537285 -70.539246 -67.795921 0.56247371 0.079789698 -0.8229562
45.796108 -70.427864 -63.665154 0.52529079 0.016828325 -0.85075629
32.727287 -71.568504 -73.239456 0.42884862 -0.069539994 -0.90069592
71.612778 -68.543259 -45.379688 0.56994188 -0.039921299 -0.82071459
58.796082 -69.29464 -54.65667 0.54277539 0.040857084 -0.83888346
61.189148 -69.307411 -52.923126 0.60311121 0.11107291 -0.78988582
48.085339 -70.85421 -62.607803 0.54481429 0.10925271 -0.83140922
73.861443 -69.567879 -43.768272 0.5849213 0.067122675 -0.80830795
48.224121 -71.900665 -62.672371 0.50218767 -0.011272768 -0.86468518
33.303165 -73.111877 -72.788849 0.52630138 0.064258337 -0.84786654
70.852058 -70.225372 -45.826145 0.55247182 0.070742749 -0.83052415
36.893234 -74.086327 -70.430138 0.57710379 0.047957253 -0.81526148
60.370098 -71.211456 -53.840866 0.5204159 0.05787842 -0.85194916
46.948112 -72.508049 -63.220715 0.50633526 0.042138483 -0.86130649
34.175858 -74.07769 -72.66658 0.55047238 0.10146748 -0.82866424
35.313114 -75.351128 -71.727852 0.57944971 0.055499021 -0.81311613
58.611526 -70.760071 -54.433365 0.22251174 -0.061871439 -0.97296476
51.955219 -73.541222 -60.109512 0.56909305 0.058865998 -0.82016331
47.704651 -74.299881 -63.18211 0.60904574 0.13067359 -0.78229636
59.857456 -72.590477 -54.190067 0.4263072 0.012912481 -0.9044863
61.69141 -73.175125 -52.958172 0.57576108 0.031457152 -0.81701267
60.254913 -75.143074 -53.869751 0.30403191 -0.035760641 -0.95199049
50.295841 -73.662704 -61.181198 0.56660491 0.059586171 -0.8218323
49.079258 -75.046921 -62.15303 0.56112415 0.054077279 -0.82596326
61.348549 -75.204079 -53.377468 0.54876161 0.066994712 -0.8332901
37.657722 -76.571548 -70.195099 0.58148199 0.10207751 -0.80713004
48.181988 -75.711006 -62.630783 0.52299136 0.018918969 -0.85212803
37.401073 -77.599922 -70.503242 0.5739153 0.067954116 -0.81609029
84.728241 -73.728226 -36.08839 0.56260026 0.058980644 -0.82462245
50.027809 -76.407005 -61.580589 0.55739713 0.06645494 -0.82758212
51.728329 -78.093994 -60.524139 0.57211697 0.073592812 -0.81686378
35.013599 -77.33239 -72.179237 0.52278441 0.047992609 -0.85111284
83.877586 -76.753181 -36.25391 -0.062701724 0.38273725 -0.92172694
48.95607 -77.714409 -62.446873 0.53266281 0.030573066 -0.84577507
37.150398 -78.704819 -70.729507 0.55809724 0.043668535 -0.82862556
34.989952 -78.601036 -72.156738 0.47845352 0.062391561 -0.87589347
74.175072 -76.364311 -44.096828 0.51750016 0.029833207 -0.85516292
62.178963 -77.956451 -53.140625 0.57450217 0.082364924 -0.81434834
48.987667 -78.969971 -62.112961 0.39342567 -0.059546623 -0.91742599
35.069992 -80.748932 -71.978302 0.57270736 0.061068092 -0.81748211
84.285904 -76.911873 -36.723877 0.36902305 0.2700175 -0.88933265
75.347595 -77.192612 -43.199326 0.56882817 0.041029859 -0.82143229
64.413765 -79.513329 -51.593674 0.58278418 0.090700291 -0.80754936
62.467831 -79.827988 -53.05238 0.57660383 0.051183403 -0.81541908
83.621727 -78.974319 -37.454781 0.5365513 0.12190551 -0.83501601
82.217926 -78.956276 -38.369316 0.50627911 0.38485029 -0.77173293
78.560966 -77.392433 -40.975231 0.61075789 0.15139128 -0.77721012
74.300529 -78.814606 -44.137062 0.46861109 0.049617246 -0.8820101
50.798225 -79.892502 -61.276649 0.51895553 0.014264522 -0.85468221
38.418308 -82.558052 -70.076065 0.58652663 0.082971431 -0.80566889
36.019978 -80.78463 -71.887276 0.521034 0.041073803 -0.85254711
82.575699 -78.150764 -37.426746 0.27027169 0.53466785 -0.80067688
80.675056 -78.150986 -38.977299 0.63034803 0.36157194 -0.68696958
52.599842 -95.184456 -61.176144 0.60098416 0.034609228 -0.79851127
47.44352 -92.03215 -64.530457 0.56995195 0.098291717 -0.81577784
51.173016 -92.79554 -61.820965 0.59930462 0.28453216 -0.74824822
46.233906 -89.233078 -64.825768 0.63495016 0.13294396 -0.76102841
45.825958 -87.557411 -65.002907 0.60944396 0.1083609 -0.78538901
45.439529 -86.143013 -65.248444 0.62957984 0.088421166 -0.77188784
45.107597 -85.344368 -65.269768 0.61072654 0.097063847 -0.78587002
52.159367 -92.074455 -61.095245 0.53825307 0.065291867 -0.84025031
52.914436 -92.261002 -60.701183 0.53398567 0.062374439 -0.84318954
44.035244 -82.19194 -65.807289 0.6252588 0.13567032 -0.76853436
43.573513 -80.868973 -65.997116 0.57157671 0.029804319 -0.82000715
43.585823 -80.527275 -65.937698 0.5555445 0.063410066 -0.82906538
35.367924 -66.869225 -70.992722 0.5575518 0.053822536 -0.82839555
34.627899 -68.326859 -71.549789 0.61417919 0.078650519 -0.78523755
48.421619 -47.087151 -60.531212 0.50316405 -0.044221159 -0.86305875
40.266525 -68.018089 -67.621147 0.55402434 0.084053524 -0.8282463
30.085495 -51.701077 -73.484116 0.56706756 0.096201874 -0.81803393
73.383141 -77.744225 -44.356483 0.34254259 -0.04740791 -0.93830544
72.052254 -74.149307 -45.264629 0.53891176 0.0084473463 -0.84231979
27.572411 -46.844624 -75.048836 0.57648301 0.051996689 -0.81545305
42.964401 -47.241516 -64.119781 0.59231532 0.13725953 -0.79392844
44.688511 -46.402729 -62.867584 0.57893634 0.086241849 -0.810799
27.411982 -21.725193 -72.86264 0.56334704 0.068005316 -0.82341689
38.160725 -23.54487 -65.59758 0.62540978 0.017196024 -0.78010702
52.895191 -36.635246 -56.16732 0.61159956 -0.012396079 -0.79107046
37.624184 -13.435331 -64.984711 0.53282231 0.093978211 -0.84099251
40.301468 -17.744921 -63.461754 0.56774491 0.094410554 -0.81777287
43.926353 -12.493538 -60.227043 0.5944885 0.015988367 -0.80394512
66.818726 -22.274052 -44.634647 0.59841377 0.044349961 -0.79995871
48.385719 -7.4702387 -56.904922 0.56740004 0.011624162 -0.82336026
54.583107 -7.5960803 -51.974396 0.60832828 0.080194242 -0.78962374
51.076935 -3.1347468 -54.35183 0.59263086 0.086386889 -0.80082828
51.88662 13.133146 -51.773697 0.30518246 0.3385402 -0.89008659
37.618404 -85.054077 -70.935402 0.49853742 0.04000346 -0.86594462
44.640244 -85.943954 -66.181427 0.62001932 0.083230019 -0.78015947
38.962368 -78.3181 -69.484344 0.58075207 0.079294868 -0.81020939
53.216202 -84.012871 -60.056572 0.52234322 0.1488732 -0.83963937
55.111767 -85.544411 -59.47781 0.50904024 -0.044985529 -0.85956639
56.979961 -85.030319 -58.351074 0.50969625 -0.023623396 -0.86003006
64.301926 -86.201752 -52.190189 0.47821656 0.097561181 -0.87280631
65.7062 -84.183113 -51.060307 0.59706509 0.080450833 -0.79814839
67.733017 -87.043312 -49.879761 0.599051 0.09050674 -0.79557931
49.267548 -73.530663 -61.710411 0.57047284 0.065229639 -0.81872213
49.271229 -71.79409 -61.751976 0.58907777 0.075117134 -0.80457741
73.493721 -88.13681 -45.694717 0.59972543 0.079515725 -0.79624546
65.306557 -81.037323 -51.173836 0.6272769 0.061129842 -0.77639353
76.085823 -85.201912 -43.591354 0.60452777 0.10510267 -0.78961992
75.285652 -89.972145 -44.613438 0.58997428 0.098157726 -0.80143332
71.506729 -87.249535 -47.189659 0.5760498 0.092939578 -0.81211376
63.49081 -75.730133 -51.874981 0.60107034 0.078931518 -0.7952888
74.802414 -82.498703 -44.188053 0.53997755 0.067621604 -0.83895862
75.579399 -79.254715 -43.42725 0.55677253 0.098042652 -0.82485878
56.64006 -55.672424 -55.076939 0.60788149 0.06594301 -0.79128474
55.296612 -48.62598 -55.339005 0.58053595 0.052406315 -0.81254631
50.276066 -38.067886 -57.921593 0.55358678 0.087515689 -0.82818037
81.706055 -60.213043 -37.150192 0.60900706 0.076474883 -0.78946948
67.162033 -45.100342 -46.509247 0.60682112 0.084082425 -0.79037857
27.960974 -12.793406 -71.606003 0.54243863 0.082296073 -0.8360548
77.991989 -53.292404 -39.13908 0.57984537 0.059121355 -0.81257862
33.838379 -12.538718 -67.635109 0.57566231 0.043548025 -0.81652707
33.7057 -9.3942404 -67.4673 0.55264831 0.088843025 -0.82866573
42.018028 -3.3919065 -60.998737 0.58065337 0.052622858 -0.81244838
15.091005 10.310509 -40.01498 -0.014549927 0.90555537 -0.42397842
14.008896 11.069865 -38.593319 -0.032485526 0.86249298 -0.50502539
52.760002 5.2287474 -52.123318 0.59711033 0.061677121 -0.79978448
46.801334 12.993327 -52.286106 -0.12721163 0.57686406 -0.80687368
-20.574284 43.471409 -27.957895 0.17509235 0.53261459 -0.82804847
-21.806656 44.503456 -27.537548 0.23371132 0.50768709 -0.82923633
-31.37418 63.068211 -16.676884 0.75490665 0.12146983 -0.64448506
-24.793226 59.181709 -13.300191 0.33832148 0.34656039 -0.8748911
-41.528744 90.318329 -12.78575 0.21599305 0.5282377 -0.82116497
-37.080475 88.659134 -11.663294 0.46759439 0.6345647 -0.61537242
31.208294 -8.3938551 -69.081123 0.57517469 0.075521268 -0.81453705
31.429338 -6.2715311 -68.79528 0.54996967 0.07031621 -0.83221936
34.414928 -5.0203862 -66.397133 0.58483177 0.040786646 -0.81012851
31.98131 -4.1522956 -68.38958 0.5278402 0.17374571 -0.83138269
33.379047 -0.04088388 -65.210426 0.32375583 0.65375811 -0.68394625
39.534786 1.409706 -61.333595 0.36986274 0.46207109 -0.80603474
41.287445 1.0047256 -60.760666 0.47762159 0.24582085 -0.84347481
-45.471733 76.028267 -17.04686 -0.54943931 -0.068000197 -0.83276188
28.440046 15.867127 -41.038116 -0.44163319 0.40689167 -0.7996245
5.0718584 31.622236 -26.681929 -0.30405131 0.24862915 -0.91963929
-31.540808 59.620079 -20.063379 0.66466576 0.58256054 -0.46780619
-37.219395 65.354294 -20.547138 -0.36374041 -0.14547591 -0.92007047
-53.294102 86.268776 -13.255075 -0.44412044 0.035185829 -0.89527601
-63.895248 129.47273 6.489572 0.53728098 0.63663644 -0.55319357
53.690212 -101.64373 -61.290688 0.52136123 0.26493067 -0.81116837
-6.1067786 27.133905 -34.990173 0.47742885 0.68046093 -0.55590886
-61.434887 117.10699 -0.19955374 -0.21006086 -0.41230941 0.88649613
5.3369627 13.267541 -44.70433 -0.043979187 0.74324548 -0.66757178
24.938116 -37.892574 -75.708771 0.42916179 0.050441898 -0.90181804
92.899635 -79.795868 -30.906519 0.44349456 0.11277378 -0.8891539
-33.844471 59.582859 -21.514425 0.10250318 0.36172369 -0.92663318
35.075996 16.81678 -43.353912 -0.37599388 0.613415 -0.69451463
-66.726608 127.23994 3.1768291 -0.10333127 0.83664012 -0.53791821
42.624245 -52.164955 -64.87854 0.55973333 0.056315903 -0.82675695
42.786327 -52.73447 -64.780769 0.66388595 -0.016696526 -0.74764735
43.208061 -52.55048 -64.417084 0.60058796 0.026481472 -0.79912001
44.249825 -51.952312 -63.654942 0.57193804 0.05995176 -0.81810308
38.054802 -65.113701 -68.392403 0.56305361 0.054446682 -0.82462484
44.638973 -54.874962 -63.609535 0.54220158 0.033174269 -0.83959323
38.014889 -66.143295 -69.071236 0.55313432 0.31167257 -0.77259481
42.9268 -58.745907 -65.152016 0.55833423 0.029989006 -0.82907397
45.259373 -62.884068 -63.721737 0.54120833 0.045518648 -0.83965558
29.196636 -10.413644 -70.498428 0.54912555 0.075667135 -0.83230746
54.92664 -5.9008594 -51.698322 0.57608461 0.050255865 -0.8158437
55.146805 -100.44875 -59.881771 0.5424211 0.19252685 -0.81774855
53.596458 -39.905273 -55.728752 0.61064762 0.13480924 -0.78034347
53.493454 1.5735536 -52.142658 0.56868464 0.061181244 -0.82027715
43.683762 -26.080412 -61.361431 0.22502416 -0.041131087 -0.97348469
54.111111 -27.223734 -53.664688 0.17937373 -0.081401356 -0.98040754
55.53072 -28.46553 -52.623062 0.39106622 -0.10624924 -0.91420913
-64.822075 112.02093 -5.4917016 0.021025077 0.30133596 -0.95328617
73.440063 -46.922478 -41.174236 0.34277341 0.033120245 -0.93883407
58.139671 -14.916897 -48.612289 0.025291104 -0.29731542 -0.95444429
59.564503 -15.378516 -48.430737 -0.029565435 -0.28210798 -0.95892704
58.996799 -17.258181 -47.860252 -0.040319983 -0.2796852 -0.95924479
60.913048 -18.134453 -47.751221 0.040249925 -0.24223962 -0.96938121
61.358246 -19.662411 -47.34938 0.11532011 -0.19059606 -0.9748714
62.915192 -19.858393 -46.740742 0.35876486 -0.078110337 -0.93015414
60.707756 -20.663374 -46.816265 -0.32393739 -0.34335732 -0.88157272
61.877163 -21.113235 -47.070755 0.099645093 -0.22208662 -0.96992183
65.57769 -28.854618 -44.907383 0.086929351 -0.1987877 -0.97617972
54.635021 -29.880283 -53.18108 0.20295897 -0.045897268 -0.97811091
53.449635 -29.399469 -52.855438 -0.24786831 -0.27063295 -0.93022531
66.924744 -31.861252 -44.191147 0.24227673 -0.13780475 -0.96037072
71.602783 -44.948261 -41.167255 -0.078816213 -0.069832958 -0.9944402
66.470222 -32.625626 -43.959042 0.13244441 -0.17659871 -0.97533143
44.673172 -28.477066 -61.031464 0.2682637 -0.068327121 -0.96091932
43.858124 -29.746798 -60.680408 -0.14919572 -0.17338029 -0.97348851
47.612 10.777807 -53.667755 0.13209732 0.39309245 -0.90996075
-66.569687 128.77049 5.3777409 -0.088479243 0.76670223 -0.63587672
30.416601 8.3693323 -49.388313 -0.27900955 0.79785907 -0.5343917
40.264553 -97.121063 -70.134331 0.58657867 0.084201649 -0.80550331
31.196922 7.1815491 -51.291702 -0.22965917 0.84854275 -0.47668844
28.480263 7.4526901 -49.660004 -0.23168465 0.84596199 -0.48028171
45.190922 -30.435822 -60.686825 0.44702435 0.028685756 -0.89406174
34.185936 -77.795898 -72.331139 0.6279856 0.064969555 -0.77550828
32.749435 -79.502762 -73.488197 -0.059218157 -0.088529147 -0.99431169
36.355957 -84.99321 -71.400597 0.59971851 0.022691656 -0.79988927
34.38308 -84.251862 -73.026825 0.43106303 -0.096438818 -0.89715338
