# .PCD v0.7 - Point Cloud Data file format
VERSION 0.7
FIELDS x y z normal_x normal_y normal_z
SIZE 4 4 4 4 4 4
TYPE F F F F F F
COUNT 1 1 1 1 1 1
WIDTH 710
HEIGHT 1
VIEWPOINT 0 0 0 1 0 0 0
POINTS 710
DATA ascii
-23.24645 -7.8482003 -55.07386 -0.75260556 -0.65382254 -0.078108639
-39.708996 -6.3961177 -41.096714 -0.31657389 -0.89471292 -0.31507096
-37.967449 -6.9384651 -41.306454 0.092497155 -0.77735627 -0.6222229
-39.035103 -6.1668906 -41.759758 0.055387471 -0.84038794 -0.53914773
-36.766247 -5.9587355 -42.192703 -0.0044837287 -0.96033031 -0.27882883
-35.361385 -6.322547 -41.18243 0.38481316 -0.91867173 0.089225061
-24.021147 -6.7500691 -53.902042 -0.5842973 -0.68024296 -0.44256762
-38.250217 -5.6200051 -42.951733 0.0043656258 -0.9099797 -0.41462982
-26.185898 -5.37643 -48.297066 -0.45722353 -0.83917671 0.29449826
-26.373636 -5.6502657 -50.447582 -0.49614897 -0.86120522 0.1102801
-33.909737 -3.782402 -47.374474 -0.14137101 -0.93124074 -0.3358646
17.847704 -56.732311 -186.66489 -0.43697375 -0.89079946 0.1246203
23.287224 -64.643555 -257.28079 -0.39330751 -0.91911292 0.023250842
-30.993973 -3.7234156 -49.566242 -0.19376265 -0.97620994 -0.097315148
23.972046 -64.922218 -259.33228 0.43834686 -0.89751321 0.048187409
17.041805 -55.354774 -186.92012 -0.7976675 -0.59977984 0.063171975
17.180838 -55.730141 -191.88539 -0.80002373 -0.59609872 0.068031698
17.269201 -56.015606 -189.7417 -0.8033917 -0.59539831 -0.0079071056
16.985943 -54.993809 -190.84506 -0.79752243 -0.60019046 0.061069433
4.4863968 -64.722305 -256.76483 -0.34707102 -0.93783873 0.00050511351
19.176357 -59.541744 -225.07008 -0.80942315 -0.5871886 -0.0066018482
4.0914249 -63.227699 -264.20929 -0.95919013 -0.23187974 -0.16182083
4.4698563 -63.672665 -266.47308 -0.90920091 -0.28654665 -0.30206758
-36.76062 -6.2418284 -40.851177 0.19412784 -0.93255174 -0.30440363
-14.6516 -14.767797 15.729719 0.086279817 -0.94018352 -0.32956141
0.94659281 -4.4148746 -12.510767 -0.016962832 -0.95280766 -0.30310014
-18.046457 -21.225485 32.714725 0.1025324 -0.94335908 -0.31553248
-0.517663 -10.268368 4.7010274 -0.016892577 -0.95500278 -0.29611552
4.4960303 -3.9249098 -13.820593 -0.042490214 -0.94272727 -0.33084714
18.87956 -20.416058 27.678299 -0.059069119 -0.9570533 -0.28383061
15.245051 -8.4679728 -4.220027 -0.11788866 -0.94282687 -0.31173676
11.385746 -5.0065045 -12.555728 -0.086323589 -0.92754865 -0.36359572
13.3525 -2.9692972 -19.314003 -0.13074541 -0.93981022 -0.31569338
4.9430146 -64.763145 -260.45358 -0.40637821 -0.90767133 -0.1048308
18.757576 -57.39011 -189.06573 -0.45862097 -0.88467127 0.083806537
31.546696 -26.701557 37.503128 -0.19277386 -0.91964328 -0.34219065
3.2425342 -63.760292 -256.18491 -0.84637654 -0.52807242 -0.069182955
30.461927 -11.134272 -7.6179051 -0.41822755 -0.88665426 -0.19730668
28.441441 -8.8105783 -13.679638 -0.40132201 -0.89825612 -0.17909977
18.220282 -56.858238 -188.06334 -0.57446676 -0.81354177 0.090208732
21.418646 -27.513405 46.574474 -0.093109734 -0.96267235 -0.25415057
19.152475 -27.012514 45.113491 -0.099420734 -0.95317745 -0.28560171
22.531818 -27.383961 45.13192 -0.1209369 -0.94616139 -0.30025461
10.647264 -26.823734 47.718933 -0.09386152 -0.95390469 -0.2850543
13.062454 -26.527752 45.672916 -0.066235259 -0.94881976 -0.30879444
16.588366 -26.855972 46.460377 -0.16310127 -0.93683231 -0.30942389
8.5940275 -26.658661 47.517849 -0.064182125 -0.94555914 -0.31905884
5.525929 -26.000481 46.350914 -0.061739206 -0.92166954 -0.38303202
9.3903379 -26.170845 45.896473 -0.10020207 -0.94262767 -0.31845343
16.214611 -26.545721 44.899853 -0.096944906 -0.94303697 -0.31824982
17.126574 -26.182552 43.634422 -0.21293598 -0.91292536 -0.3481749
17.954973 -26.621351 43.736065 -0.1585376 -0.9441222 -0.28896189
11.502916 -26.245045 45.006916 -0.11349589 -0.90074259 -0.41926306
11.354941 -25.473164 43.865753 -0.086818844 -0.90216982 -0.42255437
18.268768 -25.957092 42.291985 -0.13574561 -0.90835452 -0.39555693
15.221521 -25.508301 42.845528 -0.15003942 -0.91482419 -0.3749465
1.9705248 -24.767448 43.433266 -0.009656962 -0.96042597 -0.2783677
8.6766119 -25.394495 44.425495 -0.098373339 -0.91191107 -0.39842296
6.7896781 -25.592617 44.959446 -0.084447794 -0.91498595 -0.39454949
13.581347 -25.93339 44.252167 -0.10400199 -0.91424328 -0.39159021
23.386333 -25.456638 39.245911 -0.13755068 -0.91049582 -0.38997078
-2.638721 -24.798376 43.736519 0.0023035402 -0.93070632 -0.36575994
0.29795521 -24.974173 44.503162 -0.0055384482 -0.93900979 -0.34384587
3.6202285 -25.153536 44.925171 -0.039361827 -0.92721581 -0.37245324
7.112267 -24.427259 42.122669 -0.061317038 -0.93895924 -0.33851999
5.9758363 -24.909739 43.836151 -0.067917392 -0.93060297 -0.35967401
13.687915 -24.70322 41.618671 -0.15104218 -0.90845567 -0.38973653
20.424656 -25.13574 39.999096 -0.16186512 -0.9069652 -0.38886231
31.804962 -26.10079 36.523678 -0.22312336 -0.90082401 -0.37246758
-5.5174389 -24.857952 43.808044 -0.044529136 -0.91252041 -0.4066
-3.6979115 -25.246088 45.242256 -0.011233889 -0.94497675 -0.32694459
0.69040954 -24.431465 42.488945 -0.072841868 -0.93688285 -0.34197149
4.3843908 -24.522997 42.729595 -0.015325751 -0.94874352 -0.31567529
11.709025 -24.536367 41.657398 -0.07852754 -0.90516758 -0.41773808
14.810441 -24.583494 40.35033 -0.16939978 -0.92816126 -0.33139142
16.183735 -25.043646 41.262367 -0.15564997 -0.91674638 -0.36789823
18.229368 -24.709446 39.580956 -0.13245352 -0.90937358 -0.39432955
26.130129 -25.532934 38.501911 -0.14251086 -0.92371386 -0.3555887
29.063675 -25.865101 37.529457 -0.29071197 -0.87876105 -0.37850431
31.133108 -25.441652 34.755539 -0.26056108 -0.87922275 -0.39884257
-22.302425 -26.337944 45.35215 0.11911099 -0.94472432 -0.30546454
-19.061447 -25.710814 44.693924 0.041997246 -0.91755688 -0.39538044
-14.705096 -24.933094 43.142857 0.030740838 -0.95144814 -0.30627015
-11.485936 -24.978323 44.165382 0.064319678 -0.94911516 -0.30829114
-7.5549197 -24.422419 43.420452 0.043280602 -0.93589145 -0.34961972
-5.9750776 -24.153034 43.259735 -0.05527658 -0.90331161 -0.42540887
-3.354619 -24.463877 42.962708 -0.047535293 -0.93240625 -0.35827246
2.0463319 -24.029514 41.185673 0.019407917 -0.91879201 -0.39426452
9.1036873 -24.398701 41.683441 -0.062435221 -0.9440009 -0.32398161
16.126966 -24.024818 38.663876 -0.11341891 -0.9302336 -0.34900093
22.012194 -24.447622 37.366135 -0.15692768 -0.9130379 -0.37647757
27.830641 -24.164953 34.57222 -0.17982638 -0.92079324 -0.34612486
31.760857 -24.694578 33.537018 -0.26268473 -0.9152295 -0.30553508
-26.516613 -26.754305 45.644989 0.089715138 -0.96263772 -0.25549936
-21.543324 -25.395578 43.832596 0.14816236 -0.93163091 -0.33183077
-16.946976 -25.510052 44.776279 0.056352779 -0.93005198 -0.36308086
-13.458564 -24.529961 41.994259 0.041826129 -0.92719382 -0.37223938
-11.61925 -24.471226 42.615955 0.065061189 -0.95019299 -0.30479544
5.8197131 -23.559437 40.034206 -0.042800017 -0.94592202 -0.32155854
12.501264 -23.933199 40.31794 -0.068754546 -0.95333177 -0.29399213
25.132715 -24.53866 36.506062 -0.14964898 -0.91638559 -0.37127173
33.531673 -25.040535 31.616693 -0.14873976 -0.94209278 -0.30056241
-27.006182 -25.903908 42.880924 0.05010679 -0.9438442 -0.32656893
-9.2271538 -24.106222 41.519287 0.068635873 -0.95674133 -0.28272811
-1.9316552 -24.14525 42.242512 -0.009265597 -0.93224937 -0.36169782
-1.0134512 -23.547325 40.744038 -0.054916468 -0.90313476 -0.42583069
4.1673818 -23.79768 40.15308 -0.05354939 -0.92559206 -0.37471563
8.0670538 -23.152094 38.148148 -0.082514003 -0.92800283 -0.36332119
11.053779 -23.477179 38.031582 -0.03327259 -0.95750004 -0.28650773
18.415661 -23.369419 35.265602 -0.13843441 -0.95603943 -0.25850448
28.343554 -23.827785 32.991318 -0.24256551 -0.93310171 -0.26548666
30.325172 -24.515009 33.759117 -0.26953867 -0.90672767 -0.32433599
32.863853 -24.533192 31.148584 -0.31515262 -0.91387814 -0.25594068
-23.175989 -25.417271 41.840183 0.065869465 -0.98448324 -0.16264656
-17.85568 -24.515692 42.123001 0.021843249 -0.94881082 -0.31508884
-17.148466 -24.227457 41.12191 0.042995792 -0.93058586 -0.36353993
-6.5019412 -23.774458 41.635281 0.020155972 -0.96384877 -0.2656863
0.053786308 -22.768591 38.536983 -0.049284574 -0.93277049 -0.35708579
3.9919786 -23.200851 39.519817 -0.052198019 -0.91808748 -0.39292607
9.9051027 -23.126431 37.884792 -0.12380008 -0.89401734 -0.43058863
11.719172 -23.144218 37.038612 -0.1002979 -0.92253828 -0.37264377
22.086174 -23.292278 34.324429 -0.11979983 -0.95120066 -0.28436825
25.921309 -23.242069 32.223961 -0.12529218 -0.94406527 -0.3050288
30.68391 -24.346735 31.536268 -0.22746797 -0.94740438 -0.22512919
34.451824 -24.78372 29.80912 -0.081099555 -0.95784664 -0.27559516
36.734123 -24.557621 30.751986 0.19658756 -0.94849646 -0.24841027
-24.997595 -25.183996 41.152981 0.11186852 -0.92897874 -0.35282287
-22.431023 -25.104326 41.710171 0.2754603 -0.89189923 -0.35866058
-21.159706 -24.653421 42.157352 0.14226329 -0.93381304 -0.32825956
-19.397343 -24.601265 42.233379 0.075211622 -0.94401866 -0.32120401
-21.068758 -24.031885 39.809338 0.095979638 -0.94902319 -0.30023798
-17.526743 -23.780186 39.815678 0.088633694 -0.94297832 -0.32083637
-10.878128 -23.635405 40.0718 0.032249674 -0.91368914 -0.40513217
-6.408884 -23.372839 40.055168 0.022687253 -0.94352442 -0.33052537
-4.1023264 -23.624622 40.816998 -0.0012516166 -0.94460648 -0.32820281
-2.0003893 -22.731524 39.572342 0.014771701 -0.96564871 -0.25943074
1.5016986 -23.234165 39.84782 -0.04652768 -0.92115772 -0.38639826
4.546423 -23.02957 38.308006 -0.080194637 -0.92842901 -0.36275119
5.1983228 -22.662008 37.697304 -0.063489325 -0.90527451 -0.42005619
14.881932 -23.108076 36.299656 -0.10299904 -0.93950349 -0.32668692
20.123922 -23.658939 36.289413 -0.086604409 -0.95145857 -0.29534119
29.655409 -23.492153 30.365276 -0.29944074 -0.89927429 -0.31881177
35.95092 -24.508026 29.00032 -0.039823312 -0.96729416 -0.25051174
-36.575302 -26.326378 39.873127 0.17859331 -0.92827612 -0.32620218
-29.022572 -24.787233 39.062347 0.16098408 -0.95735413 -0.23991065
-28.456882 -25.006191 40.562088 0.1135813 -0.92810792 -0.35456321
-19.232515 -24.1828 40.225739 0.057548296 -0.94997215 -0.30698708
-14.482955 -23.143524 39.129181 0.061482884 -0.92874831 -0.36557665
-6.7202353 -22.881968 38.245907 -0.0039766128 -0.9415946 -0.33672506
-4.1100631 -23.159437 39.68552 0.070185915 -0.92710137 -0.36818063
-4.0807147 -22.826509 38.231091 0.050874099 -0.96464568 -0.2585935
-0.45758811 -22.600716 37.52108 0.025217321 -0.95706487 -0.28877512
2.0192688 -22.254553 37.414768 0.005394544 -0.94293636 -0.33292925
10.77817 -22.089151 35.214973 -0.097510815 -0.93170595 -0.34987941
14.178082 -22.444456 34.729641 -0.1600185 -0.9025768 -0.3996864
17.837807 -22.822847 34.360382 -0.14572722 -0.91503721 -0.37612572
19.61569 -22.985601 33.627407 -0.10660052 -0.93074936 -0.3497743
22.060856 -22.693129 32.454865 -0.15172094 -0.91612202 -0.37108088
27.653419 -22.609293 29.739914 -0.21575317 -0.90838778 -0.35816517
-26.019815 -24.040825 38.313473 0.12299036 -0.94039768 -0.31705776
-26.042568 -24.845322 40.482903 0.054900557 -0.91201168 -0.40647343
-19.630333 -23.344456 38.029499 0.079092659 -0.922683 -0.37735984
-2.603754 -22.69943 37.729164 0.0042925403 -0.97161013 -0.23654895
3.460567 -21.849171 36.384792 -0.073737435 -0.93933666 -0.33497676
6.9767418 -21.995007 36.06094 -0.060352683 -0.93346453 -0.35355544
19.476156 -22.155293 32.40453 -0.17422369 -0.90290791 -0.3929421
25.824572 -22.925943 31.159439 -0.19787583 -0.89804947 -0.39287695
31.221117 -23.884462 30.4107 -0.27078247 -0.89427042 -0.35631067
35.591564 -24.001673 27.025831 -0.14878865 -0.9351033 -0.32162675
-45.590832 -27.379997 37.573677 0.23979796 -0.91295564 -0.33016488
-32.605438 -24.881283 37.722084 0.16155322 -0.92726409 -0.33775988
-11.170258 -22.669538 38.268349 0.014221986 -0.93824875 -0.34566891
-4.2120891 -22.235577 36.901005 -0.013571043 -0.92007542 -0.39150602
2.6624882 -21.698692 35.147865 -0.014737173 -0.94990015 -0.31220582
4.8210611 -21.966522 35.691631 -0.042637091 -0.94739556 -0.31721237
15.80496 -21.882702 32.786327 -0.13133116 -0.91388631 -0.38414067
23.23048 -22.286573 31.337276 -0.1461107 -0.91892558 -0.36637071
33.432468 -23.89304 27.979652 -0.28563246 -0.89941734 -0.33085132
-47.711662 -27.51969 36.082165 0.30556896 -0.89902133 -0.31366923
-35.709614 -24.823334 36.189732 0.18200916 -0.93640935 -0.30001694
-35.163555 -24.949165 37.135014 0.17309377 -0.90656906 -0.3849299
-10.53102 -22.253857 36.809193 0.03486276 -0.94084632 -0.33703527
-6.8429918 -21.935328 36.089718 0.013004342 -0.92489386 -0.38000304
-2.5002568 -21.994713 35.994568 -0.019953428 -0.91340935 -0.4065527
-0.29557928 -21.345079 34.825642 -0.015756102 -0.92677605 -0.37528378
0.72543919 -21.91906 35.670025 0.012263626 -0.93993533 -0.34113228
3.9134405 -21.414436 34.486389 -0.02529951 -0.94673157 -0.32102865
8.1280451 -21.376883 33.444439 -0.071673505 -0.94643748 -0.3148317
12.783525 -21.776764 34.313427 -0.11916161 -0.93770784 -0.32635048
21.766794 -22.059551 30.49898 -0.16259025 -0.91691035 -0.364472
24.14119 -21.754446 29.652718 -0.15242334 -0.90572041 -0.39552191
29.296955 -22.548147 28.043377 -0.2704547 -0.87724674 -0.39660123
31.225264 -23.137712 28.390831 -0.25568175 -0.88497752 -0.38915512
33.264812 -22.889288 26.458803 -0.34814313 -0.85753822 -0.3787145
-18.295244 -22.606197 36.527691 0.029593486 -0.93921542 -0.34205037
-4.4503136 -21.712231 35.609341 -0.00070812908 -0.90336293 -0.42887634
-5.9407902 -21.178526 34.430355 0.074918792 -0.9302392 -0.35922453
5.7452965 -21.353342 33.998314 -0.054435641 -0.96604449 -0.25257638
5.9563136 -20.968576 32.340813 -0.020744305 -0.91640729 -0.39970908
12.577418 -21.373539 32.237015 -0.079082616 -0.92793548 -0.36425492
16.725477 -20.744089 29.836222 -0.10631879 -0.94578904 -0.30688682
29.30022 -21.921751 27.302481 -0.26387891 -0.86723125 -0.42222959
34.586117 -23.148571 25.398293 -0.30698726 -0.888004 -0.34235615
37.205372 -22.984144 24.001501 -0.067755237 -0.9664858 -0.24761724
-46.962296 -26.471691 34.000351 0.27595085 -0.92100638 -0.27495164
-21.084368 -22.257008 35.179539 0.070801489 -0.94287074 -0.32554874
-16.974453 -22.069433 35.068401 0.062013414 -0.93021733 -0.36173218
-4.7810307 -20.77079 33.938095 -0.022363154 -0.93242157 -0.36067981
8.9037676 -20.760786 32.2314 -0.064235918 -0.92539299 -0.37352589
10.160167 -20.751127 30.836103 -0.082289532 -0.95628929 -0.28060505
21.374239 -21.089542 28.739372 -0.15025368 -0.92340958 -0.35318345
22.904804 -20.883867 27.984516 -0.092341721 -0.95533037 -0.28074327
25.594845 -21.106913 27.251358 -0.17643824 -0.91509932 -0.36257777
28.377441 -21.08556 26.107485 -0.18883155 -0.93183702 -0.30987486
35.113007 -22.594065 22.551132 -0.18988445 -0.94557339 -0.26426291
-52.276878 -27.164116 30.302519 0.25981662 -0.93321937 -0.24818756
-50.202499 -27.095882 32.121395 0.28987217 -0.91113871 -0.2929171
-51.541855 -27.443428 32.436028 0.18884587 -0.94753653 -0.25789905
-44.970184 -26.347084 34.961498 0.19156329 -0.94276667 -0.27293691
-43.611481 -25.337767 33.039726 0.23442376 -0.90435165 -0.35664216
-43.266342 -26.133165 34.799881 0.20663586 -0.92251623 -0.32598376
-40.620667 -25.440054 34.682461 0.19676062 -0.92468184 -0.32595822
-29.443531 -22.553953 32.744122 0.1721655 -0.93208688 -0.31870547
3.2555566 -20.843718 32.469601 -0.065259896 -0.91786647 -0.39148736
5.5730405 -20.218397 31.230076 -0.064591259 -0.93675023 -0.34398684
11.721561 -20.835056 31.773005 -0.05557761 -0.95405138 -0.29444376
12.48471 -19.925335 29.276445 -0.055532005 -0.95196939 -0.30111536
12.246352 -20.600189 30.339083 -0.0039772643 -0.93772024 -0.34736863
14.312287 -20.930761 31.416649 -0.12777816 -0.93664843 -0.32613257
22.169279 -20.760147 26.941315 -0.1149637 -0.94335473 -0.31123203
34.423943 -22.247639 23.579067 -0.35169131 -0.90443784 -0.24146533
-45.985317 -25.82033 32.276745 0.26794389 -0.90293884 -0.33601722
-48.008373 -26.296446 31.570164 0.26238936 -0.91714483 -0.2999953
-27.659786 -22.335594 33.437267 0.11043559 -0.93095767 -0.34802544
-24.577517 -22.860596 35.018951 0.14185172 -0.94259322 -0.30231798
0.28532383 -20.590776 32.418571 -0.039753214 -0.93366492 -0.35593474
16.903227 -20.572392 28.360098 -0.10773156 -0.94514865 -0.30836344
33.657093 -21.857224 21.989138 -0.33829376 -0.88918179 -0.30807972
35.328686 -21.797043 20.111698 -0.24389704 -0.90858668 -0.33909345
36.907768 -22.449213 21.652039 -0.067286983 -0.95843917 -0.27724865
-51.4897 -27.164471 30.977612 0.31269851 -0.91085696 -0.2693682
-50.640022 -26.593222 30.755537 0.30250564 -0.89515287 -0.32740137
-51.489021 -26.69208 29.469093 0.36626184 -0.89434731 -0.25689498
-45.942844 -25.360807 31.082096 0.23307283 -0.93304741 -0.27404308
-42.445763 -25.349503 33.409428 0.23432687 -0.91883737 -0.31753549
-42.927448 -24.764183 31.527668 0.19822446 -0.93422747 -0.29652327
-25.301369 -22.071199 32.767162 0.078600287 -0.9232806 -0.37599853
-13.438611 -21.051546 33.127323 0.044574983 -0.93350136 -0.35579261
-10.251215 -20.976812 32.966633 0.052696817 -0.9429915 -0.32861853
-7.761682 -20.45277 32.121941 0.042898342 -0.94634503 -0.32029793
-2.4528949 -20.418638 32.236019 -0.018906506 -0.94079053 -0.33846086
9.168725 -19.75169 28.964058 -0.099252768 -0.89099127 -0.44303882
-49.147038 -25.465269 28.708738 0.31275591 -0.90222317 -0.2969462
-47.630188 -25.506847 30.150387 0.27215517 -0.90988052 -0.31312782
-43.218288 -24.332315 29.963825 0.22120957 -0.90912884 -0.35291785
5.928328 -64.62915 -259.17679 0.10422906 -0.99426591 0.02391021
-36.400124 -22.957716 31.036661 0.15635511 -0.94334292 -0.29267266
-26.642052 -21.656693 31.599995 0.1435978 -0.92371142 -0.35515755
-22.234579 -21.591221 32.375984 0.10959441 -0.94085371 -0.32059845
-7.8267002 -20.059574 30.531055 0.0078374781 -0.93753451 -0.34780401
-5.1895542 -19.218273 29.043657 -0.01818721 -0.93972123 -0.34145746
-1.9587495 -19.695232 30.556324 0.047025099 -0.96925145 -0.24153732
2.0031631 -19.490194 30.402071 -0.065643102 -0.93827283 -0.3396101
4.1487055 -19.930832 30.314747 -0.074227162 -0.92058843 -0.38341528
3.4917359 -18.813662 28.288937 -0.04752041 -0.94434112 -0.32551751
6.9596262 -19.748352 29.28027 -0.077913828 -0.9086715 -0.41017738
11.664413 -19.67135 27.923374 -0.12462676 -0.91141599 -0.39215964
17.490244 -19.580606 26.009464 -0.16261932 -0.92333233 -0.34786817
21.418295 -19.798912 24.694952 -0.12840082 -0.92489141 -0.3578952
24.392942 -20.456078 25.404448 -0.10834018 -0.94435704 -0.31056744
35.675827 -21.080519 18.266857 -0.17486177 -0.93617636 -0.30495441
22.349524 -64.016434 -263.54599 -0.7287302 -0.68245655 -0.056615263
-45.169193 -24.73344 29.816639 0.25136486 -0.91187954 -0.3244864
-20.122284 -21.16156 31.625254 0.091919944 -0.94225073 -0.32204702
-21.668627 -20.511061 29.590597 0.068616875 -0.92947364 -0.36245048
-11.27936 -20.342773 31.36256 0.023685792 -0.92973918 -0.36745623
-8.1555891 -19.349886 28.958908 0.019161481 -0.92665166 -0.37543234
-3.4027767 -19.450365 29.140499 -0.01832209 -0.9560132 -0.29275107
5.6522908 -19.004551 27.961891 -0.051920503 -0.94693005 -0.31721857
11.339949 -18.634418 25.90324 -0.13971111 -0.92152965 -0.36230364
13.51249 -19.680391 27.19766 -0.13767995 -0.92541891 -0.35304955
16.253601 -19.602291 26.798023 -0.10338715 -0.90079367 -0.42176047
22.506245 -19.318405 23.023058 -0.15498438 -0.90765852 -0.39004597
22.952602 -19.6416 24.127867 -0.1269674 -0.93081033 -0.34274104
-55.012051 -26.995819 27.099777 0.22274347 -0.9505384 -0.21647675
-45.290127 -24.102182 28.020855 0.28258896 -0.89894807 -0.3347173
-43.592251 -23.537289 28.031408 0.24522245 -0.9144997 -0.32180151
-42.13858 -24.016235 29.666227 0.16635381 -0.9244414 -0.34312463
-36.638973 -22.324059 27.960789 0.19043854 -0.92983001 -0.31487986
-33.799877 -21.81151 28.563768 0.16799161 -0.9401806 -0.29637682
-18.931023 -20.187212 29.211025 0.072347566 -0.93116063 -0.35735929
-10.11447 -19.434986 29.074802 0.034987833 -0.94483119 -0.32568383
-7.1228371 -18.897831 27.636005 0.045608874 -0.92376167 -0.38024226
8.2791166 -18.51082 27.078041 -0.099394195 -0.91670281 -0.38700995
16.122862 -18.951746 25.090025 -0.15390889 -0.9157812 -0.37102118
25.294779 -19.504583 22.467165 -0.18748634 -0.91367018 -0.36063242
-53.015476 -26.001102 25.624317 0.26894966 -0.91160619 -0.31087005
-46.69873 -24.34145 27.123264 0.23731457 -0.9117015 -0.33538362
-37.199966 -22.766382 29.104086 0.18291868 -0.93376786 -0.30760103
-38.850723 -23.282856 29.333643 0.24694727 -0.92506939 -0.28855428
-34.706905 -22.274614 29.810854 0.2060006 -0.92085105 -0.33105466
-24.561949 -20.460688 28.41053 0.13410054 -0.94023526 -0.3130092
-23.712458 -20.529486 29.783764 0.091982163 -0.95944142 -0.26647979
-0.92558908 -18.543074 26.771385 0.051621944 -0.9031533 -0.42620337
6.3738351 -18.473984 26.803238 0.032073133 -0.9548775 -0.29526308
12.890542 -18.287594 24.713961 -0.082423739 -0.94130099 -0.32735118
25.067188 -18.927084 21.875078 -0.16688548 -0.92300856 -0.34670517
27.073061 -19.02532 20.359137 -0.20333396 -0.91679662 -0.34371373
-55.005283 -26.039541 24.289564 0.24176313 -0.92445964 -0.29483032
-47.158413 -23.923201 26.206541 0.29084557 -0.9198662 -0.26316351
-45.196178 -23.171221 25.305559 0.26511642 -0.91992712 -0.28887254
-40.245926 -23.098232 28.470085 0.16757393 -0.91957146 -0.35539755
4.991025 -18.02914 24.470455 -0.044886488 -0.94905931 -0.31188408
15.579617 -18.111115 23.452837 -0.11872873 -0.95669681 -0.26577184
19.025591 -18.719452 22.853638 -0.12566388 -0.91413218 -0.3854489
16.689873 -17.526344 21.319183 -0.077958502 -0.93445504 -0.34744236
23.408398 -18.652475 21.051947 -0.13161165 -0.92210811 -0.36386123
-50.989666 -25.456165 26.052969 0.33198157 -0.903844 -0.26991546
-42.11758 -23.082741 27.753475 0.17463477 -0.92976099 -0.32410982
-5.858336 -18.363321 26.841438 -0.013216667 -0.93205225 -0.36208266
-2.8122318 -17.825848 25.199862 0.029010585 -0.90668958 -0.42079973
-0.99337399 -17.64723 25.010511 -0.016491212 -0.92203504 -0.38675502
2.0551736 -18.079288 25.157059 -0.069362372 -0.94514221 -0.31921005
8.4633379 -18.198339 25.100256 -0.041454908 -0.96965122 -0.24095225
6.972466 -17.709471 23.772152 -0.053001024 -0.93678349 -0.34587234
19.030582 -18.078098 21.616753 -0.14558351 -0.93423772 -0.32558459
21.145454 -18.549408 22.427935 -0.14249857 -0.92077333 -0.36314008
28.559082 -18.640409 18.742426 -0.18878786 -0.92927742 -0.31749433
34.266102 -19.607244 15.216887 -0.38214299 -0.89014089 -0.24822575
-54.798077 -25.389338 21.938864 0.20569581 -0.9434976 -0.2598106
-53.578598 -25.403742 23.474131 0.22320801 -0.94473338 -0.24011862
-46.562523 -23.601248 25.235172 0.29132357 -0.91186506 -0.28919321
-48.690495 -23.455021 22.992641 0.33711946 -0.89611971 -0.28865218
-26.441784 -20.161816 26.763676 0.091800474 -0.93878531 -0.33204651
-24.990681 -19.8596 26.455326 0.18284135 -0.92931646 -0.3208425
-22.054493 -19.854822 27.873177 0.12993006 -0.92564124 -0.35539612
-22.270555 -19.000486 25.059834 0.093419641 -0.95545673 -0.27995563
-20.711863 -19.479136 27.698124 0.079445012 -0.93546224 -0.34438172
-19.458685 -19.071955 26.356476 0.10722441 -0.93838292 -0.32854274
-14.834599 -18.990248 26.543743 0.0097476523 -0.92585844 -0.37774491
-6.7706375 -17.889885 25.441347 0.028335495 -0.94539988 -0.32467854
-3.6925097 -18.527349 26.546112 -0.031100325 -0.92835975 -0.37037951
2.1286473 -17.392742 24.202217 -0.080646276 -0.91148502 -0.40335014
2.6635847 -16.853903 22.246702 -0.07140746 -0.9192937 -0.38704005
10.003129 -17.625298 22.608612 -0.080453418 -0.94418967 -0.3194263
11.703314 -17.572048 21.825054 -0.061534371 -0.95579839 -0.28751156
13.354045 -17.466036 21.399195 -0.080174848 -0.94069862 -0.32963315
16.614569 -18.166182 22.253582 -0.15643036 -0.92644262 -0.34239408
-52.971424 -25.233706 22.622025 0.278301 -0.92495054 -0.25887251
-17.71982 -18.771822 26.582926 0.11328642 -0.91504318 -0.38712028
-13.072947 -18.572283 25.821756 0.058899615 -0.93032748 -0.36196902
-5.6192284 -17.158173 23.055838 0.055594701 -0.95060688 -0.30537829
1.3873839 -16.712288 22.572456 -0.049429711 -0.94553638 -0.32174173
5.1673908 -17.154604 22.7784 -0.077441923 -0.91463315 -0.39679828
11.52498 -16.86063 20.622326 -0.088310011 -0.92794472 -0.36210483
14.230593 -17.050249 19.917004 -0.13795878 -0.92966604 -0.34159693
34.946308 -19.488144 13.241946 -0.28996316 -0.92981958 -0.22662054
-53.63559 -24.748018 20.821096 0.20485695 -0.93456864 -0.29088676
-50.930202 -24.794163 24.111275 0.35186684 -0.89319432 -0.27998877
-52.360619 -24.451595 20.489441 0.31431559 -0.91035324 -0.26918915
-50.680279 -24.274837 23.058908 0.40529415 -0.88118458 -0.24341382
-13.784012 -17.594198 23.638472 0.02679093 -0.92323101 -0.38331017
-6.8794341 -17.330709 23.653439 0.072186224 -0.95579177 -0.28504598
16.145376 -16.91453 18.569313 -0.11453298 -0.93944418 -0.3229968
18.4133 -16.972202 18.056526 -0.11976308 -0.93361926 -0.33765647
19.289843 -17.548115 19.467018 -0.11325693 -0.95047468 -0.28943184
36.774723 -19.813509 12.004912 -0.22627713 -0.93093997 -0.28661719
-4.5612955 -17.158737 23.674829 0.024882914 -0.93315935 -0.35860062
-0.85432523 -16.541147 22.176588 0.013992905 -0.96082956 -0.27678654
4.2566018 -16.262402 21.018078 -0.063967183 -0.94133782 -0.33134767
9.408082 -16.168753 18.976206 -0.13969396 -0.94181335 -0.3057338
16.793024 -16.326372 17.280508 -0.1110602 -0.87759256 -0.46636567
23.489014 -17.229691 16.505634 -0.18531448 -0.9287231 -0.32114163
29.72402 -17.623671 13.799169 -0.23782389 -0.90925783 -0.34159905
37.376137 -18.889254 9.6073523 0.058168616 -0.93989789 -0.33646432
-54.680031 -24.783342 20.480368 0.13542862 -0.93842137 -0.31784329
-21.001648 -17.470362 21.73517 0.090306759 -0.9339186 -0.34589118
-9.6139212 -17.534143 23.581627 0.023827994 -0.94087166 -0.33792412
-7.7412701 -17.306042 22.774473 0.051715244 -0.9266175 -0.37243176
2.4696729 -16.071827 20.761635 0.038419757 -0.94653875 -0.32029414
7.4938712 -16.555637 20.563984 -0.093765981 -0.92913139 -0.35766289
19.954243 -16.770742 17.21574 -0.13120641 -0.91780102 -0.37473494
26.828407 -16.094603 12.313957 -0.24228859 -0.90418732 -0.35176933
30.39432 -16.923447 12.02455 -0.2849285 -0.89946401 -0.33133096
33.930767 -18.684538 12.620204 -0.40168446 -0.86549646 -0.29927492
-54.765358 -23.6884 16.930845 0.17909722 -0.94643229 -0.26868209
-7.8126998 -16.747757 21.875196 0.045662466 -0.93000299 -0.36470437
-1.2313224 -15.948359 19.918701 -0.012037357 -0.95356011 -0.30096212
1.1944132 -16.346716 20.899931 -0.014223795 -0.96340972 -0.26765534
6.2122154 -15.562112 18.127264 -0.063365072 -0.94200617 -0.32955912
8.0708656 -16.00489 19.369526 -0.086449951 -0.9353655 -0.34295449
22.179026 -16.600225 16.020634 -0.18022409 -0.9286834 -0.32413951
36.265797 -18.696789 9.6769581 -0.34399348 -0.88181514 -0.32259974
-11.939539 -16.796415 22.172543 0.051958188 -0.9425568 -0.32998052
-10.530533 -16.233334 20.416161 0.0018897507 -0.94769198 -0.31918061
-3.1594656 -15.894691 19.244482 0.010912978 -0.94002306 -0.34093627
1.5301949 -15.814472 19.039007 -0.012863617 -0.95380092 -0.30016369
10.962204 -15.478861 17.720974 -0.040755481 -0.93720603 -0.34638682
12.307555 -15.598076 17.232214 -0.097443022 -0.94625282 -0.30839995
14.407371 -15.422715 15.999972 -0.10023964 -0.92476356 -0.36710253
25.268257 -16.019394 12.96342 -0.17615163 -0.90219849 -0.39371106
35.234509 -17.761183 8.3253222 -0.37844729 -0.88207823 -0.28056327
-52.268784 -23.447437 17.735016 0.31236762 -0.91595298 -0.25190604
-14.275278 -16.333792 19.857512 0.07181555 -0.94471395 -0.31993455
-7.8271055 -16.198669 20.245426 0.056270506 -0.93429649 -0.35202807
-6.8631806 -15.832923 19.820126 -0.0042509274 -0.94235212 -0.33459586
0.94018441 -15.18225 17.404539 -0.052126352 -0.92905021 -0.36626309
8.6283197 -15.539083 17.505495 -0.069805779 -0.94633847 -0.31554803
10.524435 -15.160701 15.387858 -0.083487615 -0.95247394 -0.29295617
12.963701 -15.272528 15.090681 -0.015707161 -0.9513858 -0.30760098
16.37155 -15.27629 15.448828 -0.12094734 -0.92573124 -0.35832021
18.85943 -15.056262 13.544062 -0.14144193 -0.94272572 -0.30209661
21.983299 -16.076345 14.129729 -0.17161703 -0.9095735 -0.37844896
25.077608 -15.24749 11.086824 -0.18379681 -0.93557036 -0.30154058
3.6415751 -63.2938 -260.99771 -0.89788723 -0.42275017 -0.12280361
34.219879 -17.211716 7.4919524 -0.38959503 -0.8967396 -0.20993777
-51.730492 -22.586302 15.577725 0.36569285 -0.90493429 -0.21762952
-12.259088 -16.232038 19.747036 0.047752921 -0.96690482 -0.25062874
-11.130872 -15.938762 18.769398 0.052635241 -0.93617284 -0.34757733
-8.9570141 -15.408565 18.259344 0.07106854 -0.93543524 -0.34628063
-5.4143262 -15.513524 18.518951 0.008468546 -0.92385495 -0.382649
-1.2222317 -15.366547 18.480162 -0.042725932 -0.92066866 -0.3879995
-0.37025353 -14.986556 17.171957 -0.0885377 -0.92798054 -0.36195752
12.308858 -14.697375 14.446351 -0.048603669 -0.94516248 -0.32296368
21.749401 -15.300438 12.991972 -0.11422249 -0.92477804 -0.36295837
23.326769 -15.315033 12.555305 -0.17849149 -0.9205457 -0.34747139
36.29459 -17.524027 5.3153005 -0.26811823 -0.93271112 -0.24116918
-53.431221 -23.06583 14.903908 0.20261179 -0.95246184 -0.22751918
-24.313038 -16.545404 17.455517 0.10448211 -0.9270491 -0.36008817
-17.273495 -16.072189 18.687712 0.066605791 -0.93305987 -0.35350096
-14.62414 -15.862926 18.348345 0.037966501 -0.93294412 -0.35801357
-7.29353 -14.926278 17.218315 0.053157859 -0.95420295 -0.29439914
-3.391958 -14.859213 17.527548 0.035562433 -0.89685017 -0.44090259
3.8998563 -15.017879 16.310644 -0.038525108 -0.92177945 -0.38579583
27.219196 -14.795842 8.9374981 -0.2514393 -0.93025357 -0.26722005
38.276245 -17.375805 3.9290254 -0.083119072 -0.95970422 -0.26843819
-52.319881 -22.67275 13.94832 0.29939228 -0.91964298 -0.25420666
-8.8833141 -15.142509 16.963484 0.068242133 -0.95638227 -0.28403503
-10.42291 -14.914781 16.427738 0.0071200333 -0.93712842 -0.34891221
-5.3884654 -14.566411 16.402609 0.089432195 -0.94391179 -0.31785607
-0.56836385 -14.447834 16.045053 -0.052977573 -0.89730716 -0.43821612
1.9055374 -13.654915 14.224099 -0.049516898 -0.92486519 -0.37705758
6.4725518 -14.742113 15.755792 -0.069254719 -0.92545593 -0.37247169
9.2071333 -14.537739 14.716596 -0.12993306 -0.92025077 -0.36912853
12.442333 -14.534 13.143908 -0.056647267 -0.92373168 -0.37882838
21.601057 -14.571739 10.925126 -0.13649443 -0.94213873 -0.30617625
25.837925 -14.940274 9.7213917 -0.16615254 -0.93390954 -0.31655383
31.542177 -16.058073 7.6605911 -0.34470946 -0.90045351 -0.26525223
36.495461 -17.063868 3.3652067 -0.27909318 -0.91218048 -0.30005631
34.316593 -16.50749 4.9723363 -0.4147664 -0.86490834 -0.28267026
-54.960644 -23.243628 14.39956 0.19201273 -0.94967449 -0.24748603
-26.035385 -15.944879 15.77339 0.13619189 -0.93403685 -0.33019233
10.542792 -14.398368 13.4661 -0.11526451 -0.92350596 -0.36585629
16.753067 -14.378696 11.463575 -0.13819131 -0.94346792 -0.30128297
13.991851 -13.995813 12.26721 -0.12859137 -0.92069256 -0.36849636
20.194828 -14.528027 10.728753 -0.10054075 -0.93431246 -0.34198222
35.187416 -16.001762 1.9293429 -0.41782582 -0.89082575 -0.17846864
-54.735432 -22.082645 10.792324 0.17255002 -0.94445217 -0.27970782
-50.149464 -21.175842 12.862442 0.38952813 -0.88394117 -0.25868082
-4.2957921 -13.660077 13.409616 0.061463803 -0.94210911 -0.32962504
-3.2054434 -14.037269 15.563705 0.03624687 -0.94619501 -0.32156071
0.47350168 -13.692964 14.422468 -0.058044866 -0.92655295 -0.37165907
-1.691092 -13.778523 14.852266 0.010615547 -0.95512456 -0.29601398
0.27503976 -13.563042 13.307479 0.032498911 -0.95282626 -0.30177113
5.9819498 -13.802819 13.601563 -0.087583549 -0.93177313 -0.35231811
11.725217 -13.340981 11.050871 -0.08748845 -0.93178838 -0.35230139
20.793085 -13.114682 7.1318202 -0.16088505 -0.92802453 -0.33598581
31.734589 -15.174376 4.9168363 -0.35673416 -0.88535774 -0.2981317
36.947231 -16.563757 -0.033658508 -0.35326248 -0.91484314 -0.19562118
37.163658 -16.516283 1.4433767 -0.28618613 -0.92801309 -0.23851463
-53.007084 -21.340166 9.4463053 0.26336524 -0.93382615 -0.24208973
-51.786781 -21.662512 11.694791 0.36315131 -0.88651907 -0.28671417
-12.804832 -14.752035 15.970124 0.031880856 -0.92721754 -0.37316409
-8.8661118 -14.239436 14.34458 0.019207789 -0.92812169 -0.37178099
-6.6172767 -14.513633 15.067127 0.055656675 -0.94406563 -0.32502675
0.60689038 -13.046538 12.372437 -0.00024729272 -0.95902729 -0.28331351
2.5870492 -13.12919 12.047277 -0.048091426 -0.95646745 -0.28784922
26.274685 -14.349557 7.1892967 -0.22264172 -0.9304446 -0.29103866
-53.372467 -21.734095 9.9321737 0.19657315 -0.9431898 -0.26786569
-20.506994 -15.176613 14.758425 0.10153407 -0.93092549 -0.35081109
-18.767054 -14.597902 14.157534 0.079161607 -0.93215108 -0.35330975
-11.298954 -13.763691 13.387803 0.039020978 -0.94099796 -0.33615491
-8.3033695 -13.385219 13.108953 0.042343039 -0.92688024 -0.37296119
-2.3640606 -13.485246 13.308677 0.00010693386 -0.95056629 -0.31052172
2.9882588 -12.686601 10.399463 -0.022870798 -0.94659019 -0.32162702
4.6375699 -12.9299 11.554371 -0.016622035 -0.94900328 -0.31482756
7.4746828 -12.69039 10.376962 -0.085373223 -0.94788319 -0.30696741
28.478128 -14.293229 5.5043564 -0.27357164 -0.90231574 -0.33314395
-54.656368 -21.412155 8.707407 0.12770085 -0.94430113 -0.30329508
-9.6915894 -13.19897 11.440703 0.053045996 -0.93861932 -0.34085158
-7.389873 -13.16863 12.380327 0.012529213 -0.93132716 -0.36396804
-2.3114498 -12.943506 11.636063 0.010481409 -0.93483555 -0.35492605
15.180763 -13.296414 9.4255362 -0.13106839 -0.92830956 -0.34794033
25.534725 -13.248654 4.6906261 -0.21099935 -0.90271592 -0.37494427
33.123928 -14.52914 0.20663598 -0.47839698 -0.85693574 -0.19182655
-53.95895 -20.92647 7.0838113 0.068522498 -0.97764111 -0.19880293
-20.418173 -14.005782 11.879012 0.13469477 -0.93024403 -0.3413257
-16.631647 -13.938057 12.398799 0.053593513 -0.949269 -0.30986449
-8.7484474 -12.601566 10.342416 0.086359665 -0.92325729 -0.37435001
-6.5686879 -12.921556 11.496624 0.082185574 -0.87770122 -0.4721081
-7.202374 -12.278814 10.691314 0.054622773 -0.9393692 -0.33852905
-0.12792327 -12.565932 10.24127 -0.032469407 -0.93944019 -0.3411715
7.2624712 -12.357063 8.8272734 -0.076699957 -0.95360649 -0.29112151
8.7819366 -12.252665 7.9501595 -0.058691919 -0.92913502 -0.36505249
10.074786 -12.796464 9.5962877 -0.080297843 -0.94408095 -0.31978658
14.446101 -11.942125 6.267067 -0.099652432 -0.93680549 -0.3353577
16.305174 -12.948771 8.229785 -0.12084693 -0.91823369 -0.37715089
18.594334 -12.974321 7.6729307 -0.12565795 -0.91854012 -0.37482551
32.248997 -14.560554 2.0238721 -0.39972875 -0.87705964 -0.26642686
32.434593 -13.916411 -0.3145825 -0.4135136 -0.89584911 -0.16266799
37.246929 -15.323007 -3.3555334 -0.24195302 -0.92728692 -0.28565323
-27.621927 -14.732005 10.603635 0.16402857 -0.92974216 -0.32965779
-19.124689 -13.508391 10.89465 0.090864547 -0.93600732 -0.34004971
-15.478471 -13.453993 10.935131 0.051732704 -0.92475736 -0.37702471
-4.7955856 -12.51175 10.427091 -0.059348617 -0.94740874 -0.314475
13.520635 -12.353743 7.795445 -0.085375153 -0.93279403 -0.35015178
33.31813 -14.271057 -1.9649389 -0.44368359 -0.86801708 -0.22291572
-13.544029 -13.105455 10.600366 0.081931293 -0.93569964 -0.3431522
-12.318893 -12.452434 9.3434896 0.078950472 -0.91436493 -0.39711931
-11.139567 -12.500208 10.299797 0.03875751 -0.94323933 -0.32984468
-8.3064823 -12.051543 8.4499884 0.093595631 -0.95414948 -0.28432134
-2.7647336 -11.909054 9.4241571 -0.038573939 -0.93357599 -0.35629743
7.3993196 -11.653378 7.1170459 -0.059376292 -0.93279964 -0.35547042
29.363157 -12.961249 0.35460973 -0.29954273 -0.92739701 -0.22407353
35.525555 -15.007584 -3.3868511 -0.40900487 -0.88133758 -0.23655705
-26.239496 -13.95514 9.3103142 0.14749135 -0.92857206 -0.34058803
-17.605104 -12.540642 9.2259216 0.10273681 -0.92684096 -0.36112472
-9.9750786 -12.197591 8.5377703 0.03328573 -0.95016563 -0.30996358
-6.4501419 -11.760053 8.8163471 0.044950169 -0.95430446 -0.29543602
-1.1181104 -11.592769 7.9676447 -0.0056217224 -0.94103062 -0.33827457
1.2643296 -11.806091 8.7686434 -0.029799344 -0.92082423 -0.38883764
-0.31095925 -10.992108 6.5521607 0.02877192 -0.94054425 -0.33845034
11.574428 -10.986478 4.3259096 -0.085900426 -0.93004948 -0.35725221
12.474854 -11.609774 5.5141163 -0.080479853 -0.93787217 -0.33751872
19.796938 -11.537551 2.3610973 -0.16833192 -0.92612362 -0.33757877
33.787445 -13.660202 -3.9844172 -0.47682133 -0.84605175 -0.23840693
37.503719 -14.514069 -5.8408527 0.011892923 -0.99105132 -0.13295031
-53.772854 -20.000343 3.7504399 0.20148979 -0.9484762 -0.24452977
-51.765896 -19.49836 2.8776653 0.31689084 -0.91704094 -0.24210764
-14.978844 -12.157996 8.4661798 0.063641734 -0.93871748 -0.33876136
-12.99215 -11.943577 8.463294 0.069169894 -0.92999327 -0.36100969
-7.8795261 -11.429453 6.7488284 0.091613859 -0.92832017 -0.36031729
-4.4446673 -11.584135 8.136095 0.017858872 -0.94849938 -0.31627533
1.6959938 -10.93413 6.7847791 -0.056565672 -0.93370754 -0.35353997
4.980546 -11.319611 6.3267708 -0.079173043 -0.92116463 -0.38103464
15.510586 -11.353683 3.7751095 -0.14445285 -0.93760669 -0.31627059
16.331261 -10.736014 2.0126202 -0.13393734 -0.93038857 -0.34123003
29.039694 -12.195394 -2.2980182 -0.33491826 -0.89857715 -0.28352925
30.713619 -12.749285 -2.4147019 -0.3920131 -0.8813988 -0.2635563
31.924437 -13.593596 -2.3097801 -0.42460147 -0.87679654 -0.2257019
34.591698 -13.74863 -6.6947784 -0.41724911 -0.89651746 -0.14886142
35.650105 -14.58653 -5.4665189 -0.34045461 -0.91814995 -0.20270987
36.972878 -14.253606 -7.829906 -0.21247022 -0.95702481 -0.1973826
-32.339771 -13.730937 6.1228456 0.14729461 -0.93460155 -0.32376555
-30.885565 -13.739646 5.9727683 0.15776353 -0.935112 -0.31729513
-27.746424 -13.483022 7.4854441 0.1618225 -0.94242096 -0.29267094
-25.560684 -13.062009 7.1207156 0.14210913 -0.94435728 -0.29663855
-17.709494 -12.20574 7.6655316 0.090400815 -0.96749413 -0.23618388
-11.157039 -11.535641 6.9645867 -0.021092949 -0.93533641 -0.35313022
-6.4101744 -11.434181 7.657887 0.02913475 -0.96267444 -0.2690894
-7.4537807 -10.896995 5.8046274 0.041531403 -0.92954004 -0.36637467
2.1067359 -10.180573 4.3284936 -0.0089202262 -0.9555518 -0.29468834
4.1997709 -10.455916 5.0912242 -0.10954654 -0.92708701 -0.35848203
9.7166367 -11.26994 5.6657453 -0.069271445 -0.93419325 -0.34997773
14.407414 -11.403692 4.793529 -0.12251744 -0.93723631 -0.32646242
13.311498 -10.045523 1.1993901 -0.12152754 -0.92925853 -0.34886923
19.688457 -10.596652 0.38685894 -0.15656339 -0.91863286 -0.36276922
21.755688 -11.448598 1.0772142 -0.12851864 -0.93364871 -0.33433965
23.018005 -11.103875 0.19288582 -0.19604617 -0.92102617 -0.33656606
31.939358 -12.315233 -5.6142011 -0.42727986 -0.87425953 -0.23043917
-54.363235 -19.881193 1.9830495 0.22755994 -0.93869388 -0.25897935
-26.704687 -13.031819 5.703125 0.15748172 -0.9481312 -0.27612817
-25.107624 -12.60788 6.3226218 0.140101 -0.92942679 -0.34137583
-19.530134 -12.336967 6.7693162 0.16751693 -0.92982155 -0.3276737
-13.804926 -11.121609 6.2321439 0.12040891 -0.94827408 -0.29373124
-9.8540783 -11.153048 6.3505325 0.028287292 -0.93072742 -0.36461794
6.347549 -10.908407 4.9148517 -0.078351058 -0.93425202 -0.34789976
9.0392351 -10.215399 2.7872062 -0.067785472 -0.93320149 -0.35290247
11.882919 -10.214376 2.2005208 -0.090468086 -0.94229573 -0.32232636
23.222 -10.574659 -1.5639848 -0.17333445 -0.93613541 -0.3059504
28.49757 -11.217769 -4.0278854 -0.35756913 -0.88725233 -0.29142347
-26.233294 -12.587479 5.1109324 0.16619301 -0.93032974 -0.32690451
-21.441326 -12.363736 6.1502151 0.080794357 -0.94068402 -0.32952371
-16.441324 -11.643704 5.3243508 0.11290354 -0.94961321 -0.29238257
-4.9545422 -10.663772 5.4544401 0.0036729223 -0.94029129 -0.3403509
24.963106 -10.63787 -2.2199733 -0.26352367 -0.91759306 -0.29762086
26.684919 -11.79312 -1.1683851 -0.33112428 -0.89028335 -0.31265366
-53.287334 -18.958916 0.40230823 0.18946405 -0.94060969 -0.2817032
-21.583374 -11.615558 4.5347509 0.13913414 -0.92683333 -0.34874302
-14.96007 -11.176942 4.6451292 0.099658899 -0.95135653 -0.29152849
-12.691699 -10.831253 5.0589323 0.080326401 -0.965379 -0.24817535
-9.3392057 -9.862606 2.9919066 0.075893916 -0.94432461 -0.32014257
9.4333143 -9.6171207 1.1220101 -0.086557873 -0.94623893 -0.31167248
16.897707 -10.024554 -0.5335381 -0.13838173 -0.91232055 -0.38538525
26.563093 -10.5488 -4.3024893 -0.27700418 -0.9092347 -0.31074244
34.209152 -13.390558 -8.9429817 -0.40074769 -0.8999052 -0.17196497
-53.517139 -18.460049 -2.3357062 0.14008616 -0.97517633 -0.17148501
-29.873631 -12.917849 4.4046226 0.1514767 -0.93212032 -0.32894751
-19.083828 -11.627599 5.3156519 0.072275952 -0.9315865 -0.35626209
-20.610735 -11.151441 3.9589074 0.1321914 -0.93389249 -0.33222017
-20.085663 -10.559656 2.162487 0.11752038 -0.9544723 -0.27417451
-11.287248 -10.364114 3.6785238 0.073583201 -0.95111173 -0.29995319
-5.9702144 -10.33088 3.8217831 0.025910903 -0.90873545 -0.4165675
-4.0655122 -10.050748 3.7303638 0.0066872151 -0.93827713 -0.34581971
-4.106348 -9.4324207 2.3562827 -0.0066627385 -0.93031245 -0.36670756
-2.358217 -9.2161798 1.5821007 -0.034816567 -0.93847358 -0.34359151
4.4157128 -9.3111467 0.98496234 0.0049568811 -0.94510311 -0.32673466
13.641205 -9.4321327 -0.024378166 -0.10152862 -0.94389755 -0.31424397
16.972233 -9.4476118 -1.4281725 -0.10016791 -0.94239628 -0.31914836
22.770498 -9.8245087 -3.4584944 -0.20804355 -0.93037671 -0.30185595
34.14365 -12.413265 -11.937844 -0.45795384 -0.86455309 -0.2069452
-17.868856 -10.42601 2.2995884 0.10126059 -0.94586402 -0.30836272
-16.922766 -10.962695 4.0422029 0.065461874 -0.92017454 -0.38599673
-13.920494 -10.799289 3.5421274 0.11558797 -0.9317202 -0.34429181
-7.5180993 -9.5266123 2.8142893 0.041011605 -0.94712955 -0.31821936
7.8561783 -9.0855579 -0.20655407 -0.087223209 -0.94843358 -0.30473909
9.5593815 -8.9909124 -1.0873505 -0.067425095 -0.94737512 -0.31294432
14.054442 -9.1437263 -2.4019728 -0.081140883 -0.95363373 -0.28982559
18.326233 -9.2624292 -2.3547676 -0.13122898 -0.93964529 -0.31598386
-14.946669 -10.217752 2.6416273 0.056890465 -0.92909151 -0.36544824
-11.516538 -9.9944134 1.9304737 0.076424867 -0.94071114 -0.33048722
0.20689407 -8.7470856 -0.055105176 -0.055001788 -0.9319064 -0.35850424
2.4725211 -9.9551048 2.7200232 -0.011188636 -0.95064324 -0.31008425
20.479855 -9.484458 -3.2350538 -0.17921436 -0.9367786 -0.30054605
23.191582 -9.4938412 -4.7588863 -0.22255681 -0.9330681 -0.28258148
31.190416 -11.065448 -10.046486 -0.49714145 -0.84101063 -0.21342777
33.780533 -11.884797 -14.911966 -0.38553151 -0.91106218 -0.14605206
36.120461 -12.708188 -11.991445 -0.15559065 -0.95324725 -0.25905833
-23.541645 -10.81416 1.3900673 0.10567832 -0.9378472 -0.3305673
-15.346324 -9.9687881 1.3343822 0.042646192 -0.94355035 -0.3284725
-5.5155869 -9.349782 1.5692987 0.043722369 -0.95003569 -0.3090637
-2.7759178 -8.3270998 -1.0917463 8.922346e-05 -0.94237548 -0.33455706
14.816695 -8.5551653 -3.2390218 -0.094707347 -0.93554515 -0.34027314
16.686964 -9.0158119 -3.1788192 -0.12469961 -0.95450789 -0.27085933
5.2065673 -64.745636 -265.36502 -0.57185507 -0.79299957 -0.2100797
-15.074625 -8.979022 -0.61586052 0.075363398 -0.9339022 -0.34949568
-9.4076672 -9.4485922 0.96041983 0.081024952 -0.94439203 -0.31868273
-5.6385965 -8.5406141 -0.59348351 0.070917718 -0.93175107 -0.35610488
-3.6900699 -8.6010084 0.1541177 0.021934221 -0.94084394 -0.33812961
5.0069318 -7.5846229 -3.594743 -0.020436231 -0.94706506 -0.32039064
12.226067 -8.8340559 -2.1182408 -0.084435955 -0.95127779 -0.29654852
17.330727 -8.1111498 -5.8504643 -0.14057547 -0.92935199 -0.34138459
32.256683 -10.895742 -12.736353 -0.55051434 -0.82106537 -0.150949
-50.462891 -17.203844 -5.3254056 0.30439201 -0.92628801 -0.22211723
-12.063313 -9.3615618 0.51366413 0.052376542 -0.91750735 -0.39425498
-13.230233 -8.3863993 -2.2382028 0.099867038 -0.94637382 -0.30725113
-8.4356985 -9.1176167 0.1004444 0.047074392 -0.94022262 -0.33729133
2.4639044 -7.5975852 -3.2953393 0.012084073 -0.94387412 -0.33008435
2.1663952 -8.3522444 -1.8570092 -0.048487727 -0.93892813 -0.34068006
12.79987 -8.2963123 -3.9476182 -0.073039807 -0.93979472 -0.33384296
19.023989 -8.5318289 -5.6641493 -0.15776792 -0.93804765 -0.30850598
-12.026465 -8.3320856 -1.7202024 0.064272389 -0.92187959 -0.38210866
-9.8306751 -8.077487 -2.0585847 0.042353563 -0.93308902 -0.3571429
-7.3708677 -8.416275 -1.2351863 0.055879589 -0.91927367 -0.38963243
-5.5536757 -7.7080636 -2.8355865 -0.0045413603 -0.95803034 -0.2866309
-1.5978525 -7.7673349 -1.8447095 -0.044278417 -0.95274431 -0.30052897
0.40314147 -7.6029224 -3.7109559 -0.037240848 -0.95435017 -0.29635912
1.9389874 -7.2586188 -4.9925499 -0.013746045 -0.9493261 -0.31399229
10.541283 -7.8552537 -4.8629675 -0.10614017 -0.92713815 -0.35937318
-52.577061 -17.090101 -7.7855606 0.26906851 -0.93771529 -0.21975482
-51.900749 -16.975283 -6.6235566 0.16369012 -0.96160448 -0.22027799
-11.387806 -7.6515779 -3.7582176 0.10265385 -0.95429158 -0.2806949
-3.3411894 -7.5726309 -3.4337811 0.016943671 -0.96212053 -0.27209723
0.11446083 -6.6541104 -5.9820752 -0.034801751 -0.94256324 -0.33220983
6.7125397 -7.6806951 -3.7438898 -0.093021423 -0.93842423 -0.33272666
8.584301 -7.4535055 -4.9239502 -0.096134178 -0.92433804 -0.36926612
14.36191 -7.5369172 -6.3998556 -0.11613081 -0.92360377 -0.36533499
-26.234766 -9.1430578 -5.1546597 0.1285378 -0.9323318 -0.33798724
-23.426306 -9.3469553 -2.8994706 0.16375206 -0.94408065 -0.28617656
-7.5570645 -7.3746347 -3.7840931 0.019614192 -0.94839305 -0.31648991
15.055028 -6.8924522 -7.9148359 -0.11050051 -0.93961293 -0.32390934
-51.519081 -16.136545 -9.7352152 0.27200818 -0.92447931 -0.26711336
-50.166592 -15.668442 -9.8253651 0.1764527 -0.97268015 -0.15085678
-49.711052 -16.102627 -8.4900599 0.32181403 -0.92029136 -0.22248504
-48.628128 -15.683078 -9.2775774 0.29828563 -0.94203663 -0.15359913
-24.441 -9.5798712 -3.0552032 0.17257838 -0.94470501 -0.278835
-18.290903 -8.3506374 -3.8556557 0.10342595 -0.93588775 -0.33677456
-15.306085 -8.2720547 -3.5127823 0.10045803 -0.9478538 -0.30245867
-5.4129004 -7.2314267 -4.8658342 -0.0031326236 -0.93214566 -0.3620699
-47.647587 -14.919166 -10.555354 0.4723815 -0.87186694 -0.12924354
-24.3508 -8.4169273 -6.4451704 0.15609618 -0.924456 -0.34787223
-17.351923 -7.6913466 -5.3609638 0.081888407 -0.939533 -0.3325237
-14.465759 -7.5830889 -5.3580022 0.071018696 -0.93042064 -0.35954669
-2.5130692 -6.8547182 -5.4690523 -0.019207487 -0.92411208 -0.38163865
6.0038042 -6.1461053 -8.2905874 -0.061099619 -0.94272512 -0.3279272
8.9452066 -6.4156814 -7.7557364 -0.06305784 -0.95751035 -0.28142074
-51.314964 -15.875628 -11.829733 0.26749051 -0.95265645 -0.14454952
-24.633724 -8.8778219 -5.4871016 0.16568141 -0.93398893 -0.31656647
-12.981605 -7.3121481 -5.6350827 0.10530619 -0.9355883 -0.33702397
-12.065838 -6.2610679 -7.8270612 0.039142307 -0.9355967 -0.35089415
-4.1152496 -5.9765105 -7.0072107 0.038289655 -0.9248656 -0.37836161
-1.7849422 -6.4295726 -6.8833699 -0.065251395 -0.93514866 -0.34819433
-50.222729 -15.307078 -12.214025 0.25306281 -0.93970978 -0.23001055
-48.963699 -15.058674 -12.74385 0.25470841 -0.94311231 -0.21368848
-18.233929 -7.1852188 -7.0985913 0.12636571 -0.94047379 -0.31550083
-2.406585 -5.8843889 -7.5768809 -0.089925639 -0.94469506 -0.31538013
0.20432444 -6.3131604 -7.4327569 -0.029179113 -0.92549723 -0.37762859
3.4256575 -5.8342576 -8.2520924 -0.073019892 -0.9520908 -0.29697013
3.6336186 -5.612165 -9.9419556 -0.064568721 -0.93345737 -0.35282895
-51.577225 -15.68847 -13.025639 0.37479967 -0.90525281 -0.20010628
-49.87965 -14.487994 -15.418844 0.23116142 -0.94803506 -0.21861839
-19.415583 -7.7584853 -6.1802573 0.13135532 -0.94057709 -0.31314629
-9.0104103 -6.0818272 -8.4190569 0.03177017 -0.92049557 -0.38945946
1.5155017 -5.4686837 -9.3588142 -0.056359861 -0.92863458 -0.36668977
2.9610357 -4.8689699 -10.787545 -0.033029053 -0.92554808 -0.37718692
7.6126885 -4.8790627 -12.061167 -0.087023653 -0.93287802 -0.34952191
-47.149502 -14.128171 -14.275729 0.37232035 -0.91108137 -0.1769411
-27.574528 -7.9654789 -9.1852674 0.19413741 -0.94411099 -0.26639292
-23.524281 -6.8744411 -10.46036 0.15513715 -0.93679714 -0.31359792
-17.668884 -6.423244 -9.6177788 0.15330836 -0.93715847 -0.31341758
