# .PCD v0.7 - Point Cloud Data file format
VERSION 0.7
FIELDS x y z normal_x normal_y normal_z
SIZE 4 4 4 4 4 4
TYPE F F F F F F
COUNT 1 1 1 1 1 1
WIDTH 721
HEIGHT 1
VIEWPOINT 0 0 0 1 0 0 0
POINTS 721
DATA ascii
48.387642 -24.058743 -142.98486 0.89069873 -0.45323151 -0.03517019
11.810084 -54.977654 -146.35623 0.073378399 -0.99674147 -0.033497419
22.521973 -23.905544 -172.74379 0.24461231 -0.4424535 -0.862786
18.146368 -52.120464 -150.22585 0.34750986 -0.85318917 -0.38897964
30.157761 -43.620323 -153.51405 0.54139954 -0.73066396 -0.41595286
27.932186 -41.235352 -158.7718 0.44245532 -0.6635713 -0.60324651
17.190666 -54.496082 -142.78598 0.20301351 -0.973059 0.10927808
22.137629 -51.503914 -147.93977 0.40093637 -0.84589005 -0.35173869
22.046144 -52.074158 -146.38567 0.45528367 -0.8664583 -0.20485784
23.953037 -51.453922 -143.77051 0.48916629 -0.8657971 -0.10541201
22.705997 -50.735828 -148.86809 0.46181971 -0.8326574 -0.30562109
23.814487 -50.905682 -146.28476 0.52565515 -0.81637871 -0.23919135
8.1312838 -19.135593 80.675209 0.69405478 -0.71969682 -0.018014314
21.803913 -50.602764 -150.63504 0.4152686 -0.8061403 -0.42153278
27.625013 -48.769592 -145.2648 0.5838055 -0.7998029 -0.13959393
29.908604 -47.479851 -141.54288 0.62956578 -0.77490497 -0.05629576
27.774992 -49.037922 -141.98157 0.58351916 -0.81037611 -0.052876126
27.724863 -49.180103 -139.04915 0.57901102 -0.81430364 0.040692434
30.206326 -46.882187 -144.88138 0.63524365 -0.7607159 -0.13332993
29.229424 -46.980705 -147.62668 0.60434794 -0.76949203 -0.20650791
31.303549 -46.231392 -141.29184 0.64713049 -0.76153964 -0.035770196
31.570236 -45.541245 -144.88737 0.64349681 -0.75551939 -0.12289126
32.187107 -45.419044 -143.36131 0.63174337 -0.76780331 -0.10666972
32.353226 -37.633087 -159.34735 0.5365178 -0.59699053 -0.59644854
34.359261 -37.307209 -157.54553 0.59321004 -0.63015002 -0.50101167
31.178104 -37.156548 -160.55785 0.46442029 -0.62356335 -0.62887412
33.813538 -36.635284 -158.82323 0.57468253 -0.58618504 -0.57107538
36.155796 -36.012104 -156.80052 0.62463439 -0.59189403 -0.50940484
34.075325 -35.423439 -159.97411 0.54658639 -0.60536635 -0.57859725
35.387634 -32.191025 -161.72906 0.55987608 -0.5370236 -0.63098687
36.673294 -32.868679 -159.82965 0.60726452 -0.5687964 -0.55470747
35.291912 -29.149733 -164.30034 0.50519985 -0.49265972 -0.70856154
33.788113 -30.889574 -164.11766 0.50085634 -0.51309675 -0.69704717
37.868626 -31.90151 -159.24181 0.66482854 -0.57642645 -0.47511637
37.853222 -30.561224 -160.89798 0.61779583 -0.52386022 -0.58642894
39.428726 -29.447954 -159.67923 0.67086422 -0.4813067 -0.56416756
40.321594 -29.970163 -158.28854 0.68525124 -0.55036712 -0.47699761
38.738575 -28.243612 -161.62421 0.6235795 -0.52528393 -0.57898653
40.418892 -27.903103 -160.16893 0.67551637 -0.49048311 -0.55054879
42.325603 -26.215172 -159.13405 0.72347522 -0.47234917 -0.50345784
3.1994402 -26.310143 6.9117441 0.20480667 -0.96486646 -0.16458099
37.927181 -29.167841 -161.94254 0.61290848 -0.48723567 -0.62204868
20.235331 -50.979813 -150.80769 0.33854416 -0.83907217 -0.42584705
31.904034 -38.652618 -158.5217 0.51543993 -0.66693962 -0.53806448
33.57967 -38.777645 -156.39206 0.582739 -0.66776836 -0.46314228
13.791305 -55.185841 -143.97849 0.088208474 -0.99403566 0.064128764
16.314924 -54.502876 -145.92313 0.24854244 -0.94954461 -0.19128951
20.096445 -52.657238 -147.03429 0.34613562 -0.88769722 -0.30361801
-5.8026285 -19.555424 -13.205894 0.63619906 -0.76851147 0.068124093
15.718876 -54.324326 -141.49626 -0.0080731362 -0.93268305 0.36060673
13.778386 -53.822639 -140.8905 -0.10165651 -0.8504445 0.51614934
20.7416 -53.299095 -140.66621 0.25261661 -0.96210915 0.1026201
18.306765 -53.907066 -140.95195 0.22121233 -0.96641445 0.13079843
20.346251 -53.269611 -144.28635 0.37871966 -0.9169997 -0.12523158
22.271143 -52.681252 -139.73473 0.44417831 -0.89364922 0.064005226
22.13567 -52.457108 -142.16483 0.47461629 -0.87747961 -0.069057755
24.1008 -51.546608 -140.37556 0.52123672 -0.85333729 -0.01130324
24.918182 -50.834595 -137.24004 0.48168373 -0.86893237 0.11374302
26.33234 -50.045528 -139.60033 0.54959393 -0.83539593 0.0077531305
26.869946 -49.501724 -135.85783 0.5678404 -0.80847299 0.15468928
32.10508 -43.123085 -151.29396 0.60317594 -0.71715844 -0.34908804
33.071106 -43.563618 -148.67058 0.6682474 -0.70251852 -0.24477138
31.0674 -44.102081 -150.82214 0.5844757 -0.72538525 -0.36359924
31.921286 -44.735687 -148.42284 0.62020665 -0.75201482 -0.22319807
33.555695 -42.455215 -149.94678 0.66333091 -0.69068211 -0.28801087
32.899349 -44.340153 -145.38383 0.66178018 -0.73627055 -0.14125399
28.918203 -47.350922 -133.17999 0.59538132 -0.77266544 0.22024804
33.645157 -44.142487 -138.66042 0.68593913 -0.72538924 0.057428021
30.175028 -45.717091 -131.65776 0.62319767 -0.74126178 0.24931042
27.510044 -47.269524 -129.92331 0.57296091 -0.77243012 0.27398416
27.921207 -46.110641 -127.60551 0.5608803 -0.76979643 0.30467486
34.701351 -43.087875 -143.02789 0.70371628 -0.70780134 -0.061648961
32.398094 -45.098278 -136.92336 0.66386348 -0.74207222 0.092811845
34.811146 -43.056637 -139.58649 0.71243304 -0.70044649 0.042589583
32.253914 -44.677921 -133.69429 0.66364932 -0.72048795 0.20116335
31.788172 -44.141907 -130.36848 0.65553308 -0.71215045 0.25123298
36.734211 -41.131199 -142.16586 0.73256606 -0.67875117 -0.051417582
31.565243 -44.425877 -131.63974 0.63359761 -0.74089587 0.22277185
34.401367 -42.980793 -135.17854 0.68930972 -0.70659727 0.15991397
33.083916 -42.824543 -130.61887 0.67534727 -0.70253611 0.22438577
30.26281 -44.896091 -128.95381 0.59796828 -0.75339103 0.27356133
35.085384 -42.260029 -135.43822 0.73602378 -0.66668189 0.11749099
31.099285 -43.079311 -126.49508 0.62408781 -0.70736945 0.3318781
34.631245 -41.835716 -131.98213 0.69155651 -0.68845588 0.21858166
33.417507 -41.461685 -127.68787 0.67800796 -0.67409319 0.29309303
23.387003 -43.483761 -118.08792 0.31003785 -0.76307541 0.56709129
36.116844 -40.929794 -135.22054 0.71783304 -0.68442535 0.12758406
30.936003 -42.528633 -125.21738 0.63071793 -0.69259983 0.35000053
37.086243 -40.271912 -136.59897 0.73655313 -0.66762686 0.10846094
24.717211 -42.137859 -117.54513 0.4736501 -0.68924153 0.54827154
36.550316 -40.376732 -133.11613 0.72059166 -0.66308475 0.20264822
31.780096 -41.110287 -123.91328 0.64082974 -0.68047035 0.35538319
37.934875 -39.660412 -139.24998 0.76047212 -0.6465134 0.060849499
38.55159 -38.407631 -135.82982 0.7454229 -0.65666234 0.11462664
37.283806 -39.467743 -133.68417 0.75144035 -0.63664025 0.1732823
34.457691 -39.413586 -125.66631 0.68414384 -0.64238811 0.34537607
40.15892 -36.983318 -142.2892 0.80391127 -0.59465641 -0.010512303
39.990192 -37.188194 -139.75133 0.77466255 -0.63156474 0.031997979
38.339981 -38.151146 -133.23827 0.75431281 -0.63028675 0.18371412
31.849188 -40.053303 -121.33434 0.63513482 -0.72052532 0.27829289
32.997116 -39.133595 -122.85846 0.68260038 -0.66067189 0.312361
40.599461 -36.199818 -136.60283 0.78523964 -0.60562897 0.12888813
39.548035 -37.240623 -135.24277 0.76376748 -0.63576216 0.11165015
43.055508 -32.400841 -147.6609 0.80402839 -0.57368207 -0.15629223
43.970924 -31.556309 -144.54286 0.82359225 -0.56526929 -0.046546258
44.334023 -30.865707 -145.98276 0.84317636 -0.52217358 -0.12801726
44.742523 -29.81118 -147.50926 0.84228599 -0.52441245 -0.12468323
45.598003 -29.08186 -142.78793 0.85702771 -0.51465076 -0.025260333
44.319054 -31.185455 -140.87804 0.83990777 -0.54227245 0.022261569
45.188393 -29.358274 -137.22574 0.85121882 -0.52029699 0.068683714
44.27203 -30.917463 -136.26701 0.85464823 -0.50394106 0.1249793
45.741936 -28.028669 -148.17664 0.85643381 -0.49140298 -0.15825364
47.005489 -26.220268 -145.87003 0.87757492 -0.4673222 -0.10710738
46.408066 -27.597141 -139.77988 0.86860693 -0.49234998 0.055798985
48.20509 -23.613464 -146.3175 0.88958317 -0.44789541 -0.089618847
4.1251631 -22.01198 67.194115 0.44090644 -0.89755249 0.00099412701
4.9716082 -21.400845 70.06897 0.49438971 -0.86922151 0.0057284827
13.510512 -22.880161 -52.113152 0.79691082 -0.59723645 0.090784423
13.312227 -21.224087 -50.539921 0.92089546 0.38971239 -0.0087170722
13.28785 -22.906979 -50.335033 0.71763593 -0.6856671 0.1218987
13.250105 -21.967358 -47.520016 0.97148561 -0.23129854 0.052122965
12.590696 -22.871855 -48.249043 0.35999057 -0.91972154 0.15658577
12.798941 -22.359322 -45.024307 0.55932462 -0.82122242 0.11291449
11.943271 -22.391497 -42.173252 0.30070436 -0.94301248 0.14249311
12.461932 -21.545469 -38.981667 0.58396864 -0.80100352 0.13180995
10.520134 -21.923388 -40.088352 -0.34807986 -0.93494296 0.068716235
13.239823 -19.598543 -38.062279 0.99249905 -0.10586392 0.061142348
12.468599 -21.142138 -37.020931 0.78880018 -0.60883719 0.08432997
12.915756 -20.128036 -32.390793 0.77216494 -0.62878215 0.091620661
12.76726 -19.944033 -30.720356 0.58422977 -0.80169898 0.12631039
11.598877 -19.618622 -28.12818 0.35533211 -0.9327476 -0.061001174
11.815728 -20.408169 -27.083052 0.54275209 -0.83988178 0.0043342747
13.083145 -18.444443 -30.512568 0.99727529 0.07336022 -0.0077637299
-4.264811 -18.175713 -16.267483 0.7402308 -0.67117047 0.039856967
-3.3025634 -17.066236 -14.450085 0.49345234 -0.86968464 0.012384294
-2.6633563 -16.853056 -11.746743 0.39395949 -0.9182387 -0.04041706
-4.1887865 -17.792194 -9.0986099 0.57767385 -0.81502193 -0.045078654
12.671445 -16.413559 -24.955454 0.92316306 0.38326365 -0.029648751
-3.6598361 -17.28763 -12.311628 0.66845149 -0.74359572 0.015427123
12.850919 -17.335808 -23.62561 0.99795842 0.058406424 -0.025840327
-5.8102112 -19.080757 -4.8932443 0.31325245 -0.94836795 0.049710352
-3.4919674 -17.328373 -7.7755165 0.45606539 -0.88383454 -0.1041192
-3.7494049 -17.858179 -6.6138973 0.52960294 -0.84399205 -0.084842175
4.8449292 -25.635244 9.458766 0.40920171 -0.91184831 0.032964889
12.805013 -17.935936 -17.404963 0.96660453 -0.25311795 0.04008748
6.3501086 -24.881899 7.9612832 0.52684873 -0.84990692 0.0094146719
12.21489 -17.862432 -10.586187 0.83761704 -0.54559714 0.026861837
6.6847253 -24.64151 10.172915 0.58625472 -0.80719376 0.068874858
5.1657338 -24.782284 16.53163 0.46481365 -0.88320315 0.062452529
12.675374 -17.026701 -11.070254 0.99790025 -0.064615361 0.0044911928
6.8598232 -23.805012 16.017651 0.61795348 -0.78336245 0.066908218
5.7421618 -24.595304 18.546078 0.50832713 -0.85765743 0.077636085
12.607436 -16.643419 -7.6476135 0.96250242 -0.26574692 0.054476347
6.4490199 -23.643196 20.712904 0.62462223 -0.77704674 0.077752464
5.4921985 -24.167973 22.932297 0.547391 -0.83391482 0.07035093
3.1641276 -24.765593 28.881966 0.30241942 -0.95037413 0.073017217
5.5321631 -23.693796 28.079494 0.50791353 -0.85895675 0.06494002
4.9059052 -23.697475 32.243645 0.43139359 -0.90057343 0.053544834
5.8243122 -23.070259 34.646061 0.54998082 -0.83137202 0.079635069
6.1841421 -22.565434 36.250343 0.5612089 -0.82473421 0.069700055
5.3399425 -22.907766 39.502518 0.53219932 -0.84501302 0.052124105
7.520678 -23.726208 9.0146666 0.66780353 -0.74246222 0.052804146
11.900394 -17.837458 -1.6532233 0.81876993 -0.57373077 0.021184059
31.924923 -45.641754 -139.41089 0.66175145 -0.74922568 0.027311414
36.452129 -41.376606 -139.85364 0.7228384 -0.68996203 0.03817052
4.6038084 -25.698101 5.5070782 0.34604004 -0.90298337 -0.25471029
-6.6822801 -19.578814 -8.8997126 0.38959485 -0.92098457 0.0018227086
-8.5843267 -19.473124 -6.9560843 0.056433938 -0.99325705 0.10126996
-1.9766132 -16.737387 -8.3627195 0.40680218 -0.91094011 -0.068557866
16.486904 -34.153992 -98.947372 0.093078263 -0.94560522 0.31171641
14.739949 -34.512249 -99.392372 -0.14384408 -0.95650989 0.25376716
14.958481 -33.448536 -96.580856 0.051391751 -0.96038038 0.27391326
15.699575 -32.913212 -94.794357 0.1181041 -0.96362257 0.23975611
8.8723364 -18.358213 81.885132 0.86490279 -0.49878338 0.056199268
7.1814532 -19.978994 87.744453 0.62876463 -0.77755743 -0.0077090291
6.0231161 -20.764164 87.704033 0.36828965 -0.92877823 -0.041637417
5.2632427 -21.69215 97.828423 0.28617102 -0.95481706 -0.080190524
8.1142817 -18.038879 94.185349 0.90661156 -0.42092612 0.029609624
9.0452604 -17.644609 83.217796 0.89217651 -0.4498556 0.040632885
7.5819497 -19.294033 97.333313 0.87664258 -0.47859108 0.049481809
0.70227921 -19.256384 -51.051113 0.40102053 -0.90042955 0.16855009
-0.76461822 -19.354544 -46.868717 0.59488225 -0.79020602 0.14727327
0.97503901 -18.731178 -48.252037 0.46741804 -0.86892414 0.16276152
-1.46437 -19.507334 -43.728256 0.68169343 -0.71214056 0.16777925
-0.018113714 -18.423933 -43.774063 0.5481621 -0.81848305 0.17205751
5.5980606 -21.084473 89.95105 0.049582612 -0.99684727 -0.061944216
19.319633 -53.046501 -138.24333 -0.0014190908 -0.93524361 0.35400182
4.4999948 -22.055372 100.85738 0.054603688 -0.99298751 -0.10485308
21.505341 -52.253517 -136.18224 0.21792392 -0.94244874 0.25357351
8.6515007 -49.767376 -135.39102 0.049820416 -0.85037231 0.52381766
2.842284 -47.392891 -129.60081 0.30210686 -0.81341976 0.49707115
-0.5126794 -48.710449 -129.17557 0.409771 -0.77779752 0.47656968
30.042002 -47.36454 -138.76425 0.6405099 -0.76512313 0.065829784
27.841452 -48.705963 -136.14378 0.59016955 -0.79819715 0.12075252
25.043291 -49.776928 -132.02884 0.4521991 -0.84029847 0.29902241
0.14699541 -47.654045 -127.92452 0.41463 -0.77482325 0.47721159
29.484478 -47.398182 -135.60416 0.61455345 -0.77881646 0.12557448
-1.0354559 -47.943356 -127.23139 0.43858439 -0.77114594 0.46149501
25.30724 -48.386681 -128.96222 0.49719986 -0.81687605 0.29241362
31.032986 -45.826874 -133.90675 0.64205295 -0.7476095 0.16984683
24.886839 -48.15509 -127.16253 0.38961709 -0.85123545 0.3515633
-0.64678067 -46.006298 -124.4827 0.45331275 -0.74760187 0.48538533
-2.9294338 -46.897766 -123.70358 0.38421562 -0.78756636 0.48178574
1.8912932 -46.362545 -127.35706 0.37472767 -0.78791237 0.48864424
-0.42251027 -44.978271 -123.29715 0.40674442 -0.77933252 0.47665492
3.6176775 -44.564125 -125.44355 0.24859349 -0.8349846 0.49091953
26.083073 -46.546917 -125.54456 0.49813673 -0.76704508 0.40435332
2.5067458 -43.810989 -123.5039 0.32293248 -0.79964042 0.50625068
4.077157 -43.993271 -124.56531 0.22025762 -0.84314376 0.49050507
-1.7027098 -44.151608 -120.4855 0.43455353 -0.76487386 0.4755325
-5.5689735 -44.467991 -119.10854 -0.20490718 -0.77919137 0.59234613
23.963808 -46.3228 -122.97729 0.34283605 -0.81905127 0.46002001
0.57927412 -42.45686 -119.90723 0.37496352 -0.80232644 0.46440795
-2.3315258 -43.14109 -118.29854 0.36450028 -0.79825115 0.47951502
-3.8734276 -43.979519 -118.46153 0.29287165 -0.78005779 0.55293405
36.524929 -38.936264 -129.8907 0.7427128 -0.62410295 0.2426379
42.246132 -33.987137 -143.7346 0.81054282 -0.58456701 -0.036076706
41.264919 -35.516392 -139.69986 0.82928765 -0.55882126 0.00080109242
42.505741 -33.929482 -140.58403 0.80183929 -0.59753972 5.8145197e-05
6.013423 -40.350872 -119.05421 0.1212391 -0.87329876 0.47185832
2.5782888 -40.157097 -117.06786 0.26191193 -0.85521996 0.44721451
41.973129 -34.1917 -139.33873 0.78329605 -0.62144017 -0.016104231
37.747517 -38.256775 -131.74663 0.73382151 -0.63765806 0.23430355
35.608513 -39.717258 -129.23225 0.70255333 -0.65158331 0.28610843
0.070514813 -41.51482 -117.71773 0.37911072 -0.8134163 0.4411678
42.728626 -33.419579 -142.92949 0.8248927 -0.56516176 -0.012006639
41.603432 -34.966869 -137.18846 0.80056423 -0.59309179 0.085668139
29.417414 -41.345715 -121.18789 0.51192218 -0.77487451 0.37081683
27.055775 -42.069168 -119.15511 0.48783416 -0.68640721 0.53931719
39.883392 -36.073883 -133.02579 0.77711266 -0.59502143 0.20504962
37.065815 -37.529636 -127.53057 0.72237903 -0.62436068 0.2972244
30.14257 -40.76226 -119.73956 0.4270474 -0.89241529 0.14568953
28.513144 -41.56546 -120.39606 0.57791466 -0.6814304 0.44907382
1.348116 -39.8941 -115.70319 0.32759926 -0.84327227 0.42611095
43.33778 -32.395973 -139.32825 0.84124321 -0.54033035 0.018788427
39.626343 -35.479767 -130.46492 0.73954338 -0.63894463 0.21171992
38.556 -36.73415 -130.37672 0.75795335 -0.60907131 0.23353574
35.109653 -37.762249 -124.21671 0.68318194 -0.66652036 0.29835048
40.948303 -34.558945 -132.70071 0.7943297 -0.58265251 0.17191969
0.3597973 -38.908173 -112.62169 0.37674007 -0.84148061 0.38726902
43.122517 -32.694218 -136.43391 0.82245976 -0.55695605 0.11558481
39.127846 -35.241428 -128.35083 0.76355559 -0.56624079 0.31040969
36.306477 -36.815136 -125.09949 0.70542747 -0.66886157 0.23451272
35.424545 -37.462883 -122.90466 0.62020653 -0.78312963 0.045298252
22.505142 -41.17757 -114.80569 0.012549217 -0.79463553 0.60695714
21.303347 -40.391975 -113.65694 0.023443829 -0.83077258 0.55611807
43.934185 -31.488941 -138.52531 0.84047735 -0.54098201 0.030597286
40.617645 -34.379448 -130.14789 0.77026743 -0.57420224 0.27745244
38.938278 -34.459644 -127.25257 0.72027391 -0.6202997 0.31053802
37.640888 -35.709263 -125.89979 0.74691093 -0.60628116 0.27303329
37.11285 -36.030476 -124.39398 0.68509209 -0.72446096 0.076191157
40.92152 -32.470417 -128.34789 0.83027542 -0.44863406 0.33071169
43.308289 -31.406837 -133.5372 0.82228673 -0.52946651 0.20858999
41.647667 -33.155163 -131.03329 0.82965469 -0.49984634 0.24864958
1.3731896 -37.096096 -109.46519 0.3551555 -0.86624944 0.35139218
2.149652 -37.281017 -111.10514 0.32302624 -0.86473131 0.3845697
44.179073 -29.910067 -133.41173 0.83114517 -0.51868653 0.20040469
39.488632 -33.922916 -126.55392 0.74257624 -0.63182372 0.22221471
5.3875289 -35.922573 -110.20787 0.15013626 -0.893848 0.42248648
45.193783 -29.146963 -134.72427 0.85059494 -0.50306958 0.15300034
41.946804 -31.252722 -129.13835 0.8123821 -0.4706516 0.34427062
42.772179 -30.430384 -129.92599 0.82466501 -0.49443108 0.27470997
43.925907 -29.195366 -130.69516 0.81892508 -0.52442998 0.23309849
3.9726989 -34.844532 -106.69961 0.20912659 -0.90655899 0.36662909
15.731066 -36.291336 -105.59937 0.031999599 -0.97957587 0.19851241
3.526243 -34.429371 -105.45396 0.3551805 -0.86637211 0.35106453
0.95589674 -34.955887 -103.10365 0.49419713 -0.81391972 0.30545673
17.539213 -35.611385 -104.29941 0.30662331 -0.94925189 0.070021003
3.0722404 -33.38047 -102.56991 0.31213069 -0.88133126 0.35472465
1.3568512 -33.855015 -101.17171 0.53612578 -0.80342168 0.25900325
2.9720147 -32.878506 -100.70193 0.45879823 -0.8399964 0.2896727
2.0283208 -32.479748 -98.618469 0.5199967 -0.78392017 0.33922356
4.4985271 -31.668243 -99.273796 0.32143632 -0.87737411 0.35622075
3.9841065 -30.457176 -95.817719 0.30971661 -0.8931241 0.32619765
2.7654035 -31.473705 -97.162193 0.38911802 -0.85411316 0.34507659
0.8690508 -32.383698 -95.887329 0.66042912 -0.70299011 0.26389074
1.910169 -30.918625 -94.49968 0.52053416 -0.8045243 0.28598055
-0.32806665 -32.024433 -91.488609 0.58701646 -0.74728304 0.31141579
2.9724689 -29.276505 -91.400635 0.44176766 -0.84623557 0.29787025
-0.84105939 -31.850689 -89.849953 0.5354507 -0.80509144 0.25518671
0.78895926 -31.419224 -93.022415 0.65193552 -0.71325135 0.25739592
0.47697669 -30.410769 -89.664207 0.65833205 -0.7061165 0.26076505
1.8117449 -29.193396 -89.500496 0.52805305 -0.80350024 0.27485883
-1.3484722 -30.711376 -85.094711 0.57939351 -0.77867925 0.24075264
0.79204297 -29.1719 -86.905853 0.66463697 -0.70838267 0.23759542
-0.16807079 -30.429453 -86.911758 0.68849206 -0.69177103 0.21778753
2.6155751 -28.390196 -87.866058 0.45574558 -0.84206098 0.28849474
-1.596995 -29.921961 -81.659599 0.57353616 -0.79528224 0.1964246
-0.70691973 -29.69998 -83.359756 0.69898617 -0.68347591 0.21042588
0.67743623 -28.208391 -83.950394 0.68181062 -0.69239539 0.23605697
2.2911494 -27.312433 -84.96727 0.48860905 -0.82529926 0.28309393
3.9009786 -26.469095 -84.601074 0.21873154 -0.92656302 0.30600247
-0.9146117 -29.164797 -80.099754 0.67771733 -0.71186876 0.18423381
-0.5104596 -28.046576 -79.177917 0.74942565 -0.62650937 0.21411951
1.1325535 -26.989473 -80.991203 0.6000967 -0.76601487 0.23044524
-1.7757716 -29.122627 -77.907791 0.44442159 -0.87047052 0.21159044
2.9420805 -25.831041 -80.890846 0.372852 -0.89001513 0.26240122
-0.46087122 -27.147144 -77.354706 0.76678705 -0.62521666 0.14540236
-2.1156712 -28.197948 -74.328247 0.39623293 -0.89079922 0.22243229
0.28957939 -26.602568 -77.26403 0.63715059 -0.73894769 0.21907857
-0.83065039 -27.512547 -75.269264 0.7399168 -0.65062714 0.17090212
0.21764854 -26.326649 -75.622108 0.66599602 -0.71691811 0.20610122
-1.9916221 -27.722883 -71.822441 0.50079483 -0.84665877 0.17992631
2.5110624 -24.459032 -75.890358 0.53445667 -0.79591411 0.28438833
-1.8399923 -27.129469 -69.856308 0.46781221 -0.84400648 0.26230657
-1.2403806 -27.052721 -71.427887 0.801929 -0.57286686 0.16950934
-2.8662903 -27.178116 -69.714447 0.079315297 -0.96697533 0.24221437
-0.31667733 -25.770071 -73.127304 0.74341029 -0.63404101 0.2129157
1.915863 -24.069492 -74.28878 0.48507971 -0.84353065 0.23055077
0.97832817 -24.023378 -70.380859 0.59970832 -0.77245551 0.20895576
-0.30242169 -25.13418 -70.079544 0.75173467 -0.63297874 0.18502124
-1.2140893 -26.076115 -68.818855 0.80466831 -0.57190496 0.15947947
3.3522673 -22.875042 -71.455696 0.3043564 -0.92136049 0.24178943
-3.0924182 -26.593218 -63.763287 0.089162722 -0.98955911 0.11323726
-0.95419568 -24.559908 -65.656898 0.83501732 -0.52860045 0.15273398
-1.5068685 -25.845644 -65.192627 0.70072532 -0.69506222 0.16084918
-3.5470428 -25.573599 -60.251606 0.10757884 -0.98374373 0.14378844
-1.3980715 -23.760368 -60.37001 0.83847278 -0.51455826 0.17942482
-2.0320342 -25.092989 -61.16378 0.77983487 -0.60293019 0.16832331
-2.3902245 -25.321402 -59.391674 0.68421692 -0.70478946 0.18740036
-2.4894147 -24.615234 -57.864918 0.83504349 -0.53448951 0.13047355
-1.8365406 -23.184448 -57.341579 0.8705166 -0.46976745 0.14669463
-2.4543593 -24.499119 -55.612694 0.77880287 -0.61659175 0.11524203
-3.2399421 -24.408995 -52.780025 0.38002276 -0.91167212 0.15632194
-2.4766676 -23.895761 -53.87281 0.82874238 -0.54160911 0.14087485
-1.2508101 -22.229321 -56.901073 0.7102735 -0.68732995 0.15195084
-4.3654895 -24.32583 -51.762138 -0.027242726 -0.99562943 0.089330174
-1.7678328 -22.535946 -54.239044 0.86634403 -0.48212284 0.13040555
0.66014999 -20.201366 -55.765759 0.54060674 -0.8197422 0.18912204
-2.7268031 -23.380564 -49.709545 0.8450011 -0.51001316 0.16080973
-0.29313886 -20.842575 -54.460728 0.67664921 -0.71229053 0.18651563
-1.5521584 -21.145998 -51.808731 0.82768404 -0.53478366 0.17013387
-4.159462 -23.734604 -47.150871 0.035998579 -0.98635495 0.16064864
-1.7145355 -21.088194 -49.980942 0.83769149 -0.53029263 0.13062443
-2.9639769 -22.4254 -47.080486 0.82468939 -0.53964722 0.16931705
-1.3639172 -20.341434 -47.863701 0.77716786 -0.60840929 0.16077399
-3.2309301 -22.930182 -45.343346 0.74592954 -0.65915078 0.095443182
-3.2789485 -22.309156 -43.68948 0.86048496 -0.48038167 0.16970316
-4.1982789 -23.034292 -42.656864 0.29874301 -0.94762403 0.11296649
-2.4605601 -20.80085 -45.299744 0.82734334 -0.54833794 0.12177202
-2.2468524 -20.476767 -43.605217 0.85346562 -0.49333185 0.16798811
-4.4979606 -22.851389 -39.720413 0.13398989 -0.98537803 0.10524739
-4.7984524 -22.666826 -38.452389 0.052632157 -0.99182242 0.11626741
-3.4548094 -22.190742 -40.526089 0.85460532 -0.50364178 0.12647034
-2.8591678 -19.890154 -38.802181 0.7784223 -0.61144948 0.14208588
-1.3399818 -18.675671 -41.523167 0.6359514 -0.75892782 0.13998009
-2.9546177 -20.295986 -41.329811 0.8588056 -0.49072117 0.14712493
-3.5263135 -20.338202 -36.195942 0.90128911 -0.40943399 0.14156932
-4.2447109 -20.960978 -32.737148 0.83009946 -0.54141408 0.13343777
-4.2047482 -21.837999 -36.058842 0.71457106 -0.68069756 0.1613659
-2.7510498 -18.832848 -36.006596 0.74511415 -0.66018856 0.094636314
8.1909275 -18.871119 87.285889 0.84739554 -0.52978712 0.035302844
-2.4936905 -18.700222 -34.070885 0.67223072 -0.72296673 0.15945195
-3.1957066 -19.375311 -34.182518 0.85802943 -0.49706072 0.12929128
-5.6357985 -21.909874 -31.661285 0.24054624 -0.96239138 0.12625499
6.5957508 -20.49535 90.638756 0.61131454 -0.79122341 -0.01612195
-1.0995319 -17.368059 -35.846516 0.58859569 -0.79243898 0.15998636
-5.5168056 -21.136057 -27.194962 0.39758685 -0.90905857 0.12464803
-3.6256719 -18.840229 -31.168077 0.84291613 -0.52436376 0.12056196
-4.5980873 -20.320429 -27.198254 0.81757444 -0.55997807 0.13415071
-7.3065095 -21.349144 -26.061687 -0.27803439 -0.95945293 0.046335574
-1.1330094 -17.410137 -33.72237 0.61102575 -0.78351784 0.1129037
-4.1727905 -20.862944 -30.980177 0.79705524 -0.59537971 0.10112406
-2.3293376 -17.549332 -31.082232 0.62087566 -0.77332819 0.12836273
-3.6623623 -19.073141 -29.760517 0.86863458 -0.48472366 0.10255197
-5.7534189 -20.968098 -23.956236 0.41418013 -0.90097004 0.1292586
-0.20757176 -16.088671 -30.359035 0.47043994 -0.87419993 0.12025262
-2.9450371 -18.026974 -28.781258 0.74068135 -0.66040391 0.12352241
-5.1399384 -20.074135 -22.556005 0.74827331 -0.65233946 0.12058342
-3.9092298 -18.446321 -26.404367 0.81474066 -0.56849438 0.11406974
-5.9551721 -20.695707 -21.051636 0.61498493 -0.78482729 0.076417662
-4.2726626 -18.655899 -23.487864 0.80826247 -0.58284926 0.083656944
-6.0187821 -20.202394 -17.328074 0.37466833 -0.91954386 0.11858569
11.963228 -19.786177 -22.643965 0.52291435 -0.84762806 0.08992894
-0.92817748 -16.114153 -24.800024 0.34962258 -0.93441159 0.06810917
-2.2859712 -16.83849 -24.419115 0.55420583 -0.82799602 0.085314222
-1.1933076 -16.102818 -26.439087 0.50436747 -0.8587693 0.090159617
-3.4985223 -17.547873 -21.140276 0.72064811 -0.69123602 0.053470179
12.694849 -19.185005 -24.403688 0.9457776 -0.32192427 0.043236919
-1.613456 -16.016249 -22.515413 0.56723785 -0.8196243 0.080356531
-2.8436201 -16.961929 -22.609324 0.65582031 -0.75206232 0.065589964
-5.309423 -19.506844 -18.092178 0.76719153 -0.63844585 0.061678153
-4.4328237 -18.51914 -20.097296 0.78729761 -0.61349547 0.061528407
12.533359 -18.749859 -20.614737 0.89131212 -0.44809914 0.069064654
11.483492 -19.809517 -20.155287 0.52412796 -0.84591842 0.098549284
11.474672 -19.612116 -17.832909 0.70784533 -0.70263195 0.072548762
1.4537721 -15.228893 -22.369349 0.052100118 -0.99863768 -0.0028858387
-0.95626807 -15.539443 -22.060604 0.25935799 -0.96341145 0.06761533
-1.174423 -15.861279 -20.311621 0.34678376 -0.9379375 0.0037777405
-3.3029189 -17.072121 -17.562393 0.67511147 -0.73768777 -0.0064169853
-2.5218878 -16.582041 -19.698755 0.59459013 -0.80107301 0.068880379
11.622088 -19.213387 -14.84896 0.7469551 -0.65482199 0.11517911
-0.46685484 -15.47321 -16.792099 0.21165057 -0.97731113 -0.0081849098
-2.149565 -15.982444 -16.865963 0.45104548 -0.89240563 -0.013043817
10.875427 -19.413977 -12.966198 0.70499653 -0.70727688 0.052338306
-1.1532413 -15.857751 -14.308916 0.41860676 -0.89255828 -0.16765437
12.796581 -16.992758 -13.380583 0.95969701 -0.27508673 0.057523083
11.042386 -19.237001 -11.530189 0.29404548 -0.9541536 0.055929821
10.992952 -18.951469 -9.6628571 0.42400753 -0.90274423 0.072596788
10.487605 -18.918825 -8.1255989 0.14475131 -0.98946273 -0.0032239826
11.391299 -18.81267 -8.3785257 0.6330843 -0.7727648 0.045154274
11.037563 -18.684471 -5.294591 0.51020896 -0.85785609 0.061398178
11.933416 -17.732697 -4.2206044 0.87133563 -0.4887819 0.043202586
-0.042201664 -26.786903 9.3851891 -0.0024325694 -0.99885821 0.047711078
10.455931 -18.655277 -2.2481587 0.32723436 -0.94137537 -0.082036704
1.4581691 -26.461411 12.862055 0.099580809 -0.99289262 0.065176114
3.3545134 -25.91617 12.995771 0.32047129 -0.94521314 0.062211957
4.6568789 -25.434856 13.759778 0.49327648 -0.86570936 0.08500357
3.2541013 -25.99848 14.70923 0.28266144 -0.95635056 0.074135378
8.1779099 -23.102713 9.6078691 0.73686904 -0.67253321 0.068725206
7.5817142 -23.508677 12.659781 0.65777522 -0.74949735 0.074735887
9.6416903 -21.463806 10.877706 0.81092191 -0.58265787 0.053995423
8.7775822 -22.176201 14.217003 0.72801018 -0.68266284 0.063028716
3.8242996 -25.350428 18.508263 0.40756607 -0.90862983 0.091003291
9.7784176 -20.783787 13.168503 0.84449965 -0.53524154 0.018350637
4.6630564 -24.691216 21.451591 0.41848028 -0.90497077 0.076825611
6.9189663 -23.666874 17.996933 0.65492982 -0.75371253 0.054629888
8.6905527 -21.936169 16.94182 0.72376913 -0.68716466 0.062952779
7.9617167 -22.456793 19.248878 0.68442643 -0.72481918 0.078724876
10.647616 -19.526247 16.385288 0.87664461 -0.48012123 0.031270213
9.6280842 -21.292463 14.454789 0.79572797 -0.60400581 0.04465377
9.8597546 -20.463097 17.279491 0.79064637 -0.60940713 0.059171002
7.8578725 -22.347933 23.473539 0.66422313 -0.74467134 0.065361753
9.1642342 -21.25712 20.663372 0.72554225 -0.68748325 0.03090792
9.7979269 -20.463007 22.450693 0.77837718 -0.62463552 0.06292434
6.315443 -23.346956 25.386526 0.56432474 -0.82244802 0.071532011
11.644914 -17.198202 16.672529 0.92028213 -0.38931772 0.038890168
10.349858 -19.658722 19.682207 0.87263906 -0.48790795 0.021141926
7.330163 -22.441298 26.953341 0.64775586 -0.76037252 0.047391411
6.3876243 -22.889517 31.011209 0.56327879 -0.82383752 0.063314438
2.6924145 -24.451073 33.211086 0.31153634 -0.94783157 0.067531206
3.4466779 -24.621777 30.772688 0.37792709 -0.921857 0.085736863
9.2232351 -20.65015 25.288033 0.7335096 -0.67711979 0.058927741
10.613003 -19.082186 23.298691 0.87245446 -0.48770869 0.031040102
9.6942196 -20.242987 27.269297 0.75459737 -0.65583771 0.021443374
3.3348415 -24.298691 35.914337 0.37644461 -0.92480403 0.055018339
2.0637028 -24.58383 35.623928 0.20131256 -0.97609359 0.081942089
7.6374502 -22.015991 30.771379 0.64493144 -0.76264238 0.049397629
3.7574246 -23.827656 37.669716 0.40501675 -0.9111017 0.076519005
10.912482 -18.308851 27.682138 0.87752688 -0.47823599 0.035169907
10.194717 -19.279121 31.679405 0.85163921 -0.5228526 0.036547761
8.8681765 -20.902422 30.894831 0.7117098 -0.70040834 0.053826753
2.4708433 -24.252104 38.972454 0.27224272 -0.96004146 0.064841345
9.8361435 -19.613384 34.411297 0.7564339 -0.64847285 0.085385114
8.1301479 -21.218126 33.945084 0.64517903 -0.76033843 0.075029768
11.3991 -16.911749 30.139568 0.93839103 -0.34308511 0.041411936
8.9626236 -20.224428 35.895733 0.73060781 -0.68056452 0.055175003
7.5112972 -21.515362 37.504063 0.61772734 -0.78487319 0.048858371
6.6254478 -21.909393 40.813316 0.57369047 -0.81736648 0.052832346
7.9362454 -20.922667 40.753559 0.65467316 -0.75453985 0.045524966
4.1980648 -23.482637 41.1227 0.38426524 -0.92063171 0.069119021
8.9319077 -20.30011 38.693272 0.7231608 -0.69007975 0.028781399
10.674739 -18.269821 34.307041 0.88640678 -0.46097842 0.042212024
10.450031 -18.175293 36.853493 0.83209932 -0.55387861 0.028793758
11.37705 -16.726738 34.789307 0.95679718 -0.28964818 0.02535798
10.316907 -18.746468 38.646328 0.82374835 -0.56682217 0.012298823
6.6426072 -21.83416 42.944866 0.53922433 -0.84032607 0.055581369
8.1371899 -20.611483 43.993286 0.63753164 -0.76904547 0.046070065
10.71987 -17.665104 40.380344 0.90617055 -0.42281973 0.0088630123
9.9293365 -18.847239 40.760193 0.77420312 -0.63054067 0.055026785
9.3018103 -19.636126 42.947113 0.76639181 -0.64169019 0.029619619
8.424675 -20.188528 46.242294 0.69566339 -0.71830422 0.0095635597
7.6410694 -20.879553 47.554626 0.57558292 -0.81613129 0.051323641
11.24633 -16.86587 42.287781 0.90907991 -0.4150359 0.036317635
9.3716202 -19.225742 45.887688 0.74140984 -0.67054975 0.025969232
9.0362282 -19.677053 48.779823 0.68069553 -0.73117107 0.04519384
3.4488964 -22.832064 55.0872 0.37456998 -0.92562693 0.053964436
4.9286027 -22.392233 51.269756 0.49205691 -0.8700195 0.030758765
5.9251304 -21.464531 55.250389 0.52148229 -0.85150135 0.054787971
4.7522988 -22.222933 55.557957 0.47925371 -0.87537658 0.063495956
9.6762581 -18.967243 47.691326 0.83852947 -0.54373306 0.034968786
7.1736546 -20.908533 50.401688 0.55805385 -0.8285746 0.045167528
1.9526626 -23.344236 55.552193 0.25695014 -0.96563536 0.039051544
9.7883224 -18.49304 50.858818 0.80947179 -0.58565313 0.042021159
7.0527644 -20.939949 53.354393 0.58232868 -0.81162363 0.046480834
8.6427507 -19.759743 51.574249 0.66493773 -0.74494392 0.054003093
-1.1396753 -23.662121 62.112614 0.16472287 -0.98591524 0.028938482
7.1265378 -20.644354 56.809834 0.58212548 -0.81209546 0.040383358
4.5426254 -22.104359 58.15176 0.45076841 -0.89158857 0.043331414
5.6412292 -21.476681 59.305252 0.5091331 -0.86012542 0.031108523
10.420165 -17.52803 50.789478 0.88829988 -0.4589251 -0.017637564
8.9250364 -19.325968 53.613186 0.69426745 -0.7188279 0.035766818
1.7722692 -23.041527 63.233524 0.25041306 -0.96771067 0.028799342
11.017231 -15.983699 50.840008 0.96123111 -0.27572134 -0.0035346788
8.3138943 -19.697636 57.926376 0.64841831 -0.75990582 0.045791093
6.9197474 -20.621965 60.211365 0.60663807 -0.79444087 0.029222446
11.31953 -15.836549 52.764946 0.95604807 -0.29185817 0.028123107
3.2788055 -22.567652 62.836372 0.41349524 -0.9095875 0.040893208
10.710047 -16.531406 56.201653 0.96873367 -0.23737052 0.072183117
10.251574 -17.737494 53.351063 0.83971781 -0.54190785 0.034781821
2.1169624 -22.857788 65.891937 0.35575461 -0.93441862 0.017336236
10.419201 -16.902115 58.196278 0.90459663 -0.42617011 -0.0091700368
9.6088085 -18.514074 56.914757 0.7961632 -0.60391694 0.037531238
8.9233685 -18.917305 60.320499 0.6944378 -0.71834803 0.041621905
6.9567842 -20.502453 64.316254 0.58196342 -0.81237209 0.037015799
5.1060047 -21.571074 65.192787 0.45405164 -0.89030463 0.034564573
9.6795864 -17.932827 61.710716 0.81808144 -0.57359183 0.041656271
1.2918119 -23.20924 67.98848 0.23761192 -0.97059685 0.038500428
-0.45479345 -23.123426 71.316658 0.10731267 -0.97512662 0.19393818
2.770539 -22.686161 71.172325 0.30043983 -0.95159286 0.064860582
8.7863102 -19.032938 63.61726 0.69997311 -0.71360195 0.028459074
3.5103738 -21.941706 74.009521 0.24911262 -0.95323241 0.17114581
-1.1237154 -22.663778 72.925026 0.054928958 -0.95378608 0.29542321
8.3671179 -19.138031 67.8759 0.70236534 -0.71124268 0.028578032
6.1626458 -20.826302 71.262657 0.5327388 -0.84599918 0.021790786
4.3104606 -21.892857 71.618874 0.49756995 -0.86633539 0.043440711
3.4629729 -22.181293 72.676003 0.23426095 -0.95359945 0.18912962
1.2968134 -22.052549 74.353783 0.080725521 -0.95999539 0.26812714
7.8010793 -19.588413 69.900917 0.64339972 -0.76501638 0.028049655
5.1617312 -21.385195 73.859085 0.41643995 -0.90713596 0.060679972
3.3035917 -21.572929 75.880074 0.1172702 -0.97153616 0.20582807
9.9951534 -17.379839 65.660545 0.86690205 -0.49787262 0.024571018
6.851419 -20.182447 73.258972 0.59149265 -0.80608457 0.019082567
6.2703376 -20.889196 100.17487 0.73386431 -0.67839885 0.034902092
7.4100113 -18.907068 101.20008 0.97613043 -0.18179455 0.11882837
9.6676931 -17.884668 68.77726 0.8579666 -0.51177651 0.044476926
8.9567432 -17.177332 88.556404 0.96971583 0.22689797 0.090379648
8.6182318 -18.738142 71.042496 0.72076672 -0.69234753 0.033914529
5.7760549 -20.803118 78.014923 0.33085999 -0.93958098 0.087858625
4.618505 -21.162029 77.629471 -0.34513679 -0.7717315 0.53414524
7.2728906 -19.992556 75.178513 0.60255361 -0.79803938 0.0078902924
9.5277729 -17.641836 71.665977 0.86383212 -0.50288302 0.030046215
7.9926286 -19.18648 77.410934 0.69976205 -0.7141332 0.018623551
6.8880181 -20.11931 79.871841 0.58839411 -0.80855739 0.0052279695
7.7268577 -19.428265 91.144379 0.83201289 -0.5540216 0.028539196
8.6534767 -18.72863 73.494461 0.74786079 -0.66338962 0.024870336
8.9253025 -18.145786 78.354095 0.80969477 -0.586851 0.00064298749
6.0008607 -21.040615 93.735321 0.47846639 -0.87769276 -0.026931856
6.6338463 -20.424965 97.252785 0.71872163 -0.6952852 -0.0042091217
9.8362455 -16.985868 75.281174 0.92956513 -0.36355114 0.061148465
6.0812697 -20.589348 80.613037 0.024737628 -0.99959016 0.01440597
5.9517827 -20.64463 82.700424 0.225668 -0.97379142 -0.028357759
2.7086935 -21.568623 98.132111 -0.34041834 -0.92466563 -0.17061302
7.3739271 -19.850471 82.567543 0.67469835 -0.73795784 0.014153805
11.152343 -19.936272 -26.640976 -0.027158685 -0.99641091 0.080172628
10.419794 -17.098667 59.787342 0.92827529 -0.36700407 0.060107052
10.576182 -17.684116 45.57243 0.88391107 -0.46449998 0.054231845
11.751998 -16.779274 19.169781 0.92062998 -0.39006627 0.016995218
10.921376 -19.043879 12.916636 0.87965643 -0.47498694 0.024332339
10.53711 -20.089748 8.49263 0.89084667 -0.45310596 0.032974422
5.6350861 -21.170261 66.942932 0.51033133 -0.85940796 0.031302497
7.4074774 -20.019974 66.180283 0.60270977 -0.79740047 0.029888207
6.2428918 -21.017353 62.573429 0.49911252 -0.86604512 0.029197315
4.8019829 -21.850517 61.635231 0.46559465 -0.88416785 0.038325012
-5.6591797 -19.62619 -15.64744 0.64671415 -0.75792253 0.08552359
30.590899 -40.76712 -121.59621 0.53936541 -0.74859452 0.38560495
28.432367 -44.895645 -125.75349 0.57383877 -0.73665512 0.35783857
26.811649 -48.601738 -132.19505 0.5679915 -0.78739017 0.23958801
24.680519 -50.403091 -133.20319 0.44872144 -0.87785381 0.16739684
16.81008 -53.749245 -140.25253 0.015485684 -0.93756598 0.34746262
0.34898031 -15.453551 -13.443204 0.18584903 -0.97786182 -0.096158318
-1.8480285 -16.729713 -13.551303 0.50086868 -0.85126382 -0.15646243
4.1084418 -24.755938 24.547033 0.37213343 -0.92518312 0.074517272
11.232371 -54.758221 -142.89012 0.0066582821 -0.95824522 0.28587008
4.9388332 -54.989025 -142.6851 -0.0022263005 -0.99219495 0.12467617
11.833915 -54.100842 -141.39857 -0.0035260119 -0.84212697 0.5392679
6.9518876 -55.12397 -143.48474 0.019003976 -0.98044807 0.19585839
17.087553 -52.030487 -136.79663 -0.19978386 -0.85578424 0.47719985
6.0912156 -52.522575 -138.96851 0.11635496 -0.81268436 0.57096905
4.1282287 -52.752235 -138.69907 0.24825744 -0.80348676 0.54108894
6.0858922 -51.461624 -137.35623 0.16693984 -0.8302924 0.5317381
19.395136 -51.260124 -134.271 -0.20802772 -0.88747108 0.41124159
20.879725 -51.170155 -133.07863 -0.032429844 -0.92988998 0.36640531
20.835924 -49.908627 -130.29045 -0.13592513 -0.91232306 0.38625249
12.761713 -49.3638 -134.2424 -0.12428759 -0.84580648 0.51881015
11.309256 -48.749432 -133.45876 -0.029265456 -0.84533465 0.53343511
7.0285406 -49.203163 -134.07092 0.12848969 -0.8428582 0.52257109
-1.2246735 -50.640602 -131.12248 0.38629216 -0.80028707 0.45860544
19.853779 -49.128819 -129.29395 -0.37634805 -0.8282069 0.41525352
23.108835 -49.350525 -128.94867 0.21867195 -0.91183853 0.3474665
21.881695 -49.019054 -127.6373 -0.13694026 -0.90953296 0.39242467
20.44453 -47.987152 -126.47588 -0.36225927 -0.83025879 0.42360181
-2.8602371 -50.251919 -129.69185 0.14260346 -0.8843801 0.44445038
10.988545 -47.063389 -130.89355 -0.078085877 -0.85964054 0.50489676
8.3014212 -47.978771 -132.44833 0.088610098 -0.84103191 0.53367931
8.3577185 -46.193729 -129.25623 0.05756335 -0.8570658 0.51198107
-2.7027521 -48.724941 -126.92928 0.28396419 -0.85504693 0.43388832
22.046743 -47.780773 -124.93 -0.023228345 -0.89290434 0.44964689
9.8647127 -45.470222 -128.14902 -0.04840317 -0.86921066 0.49206689
11.364628 -44.865871 -126.60807 -0.10591516 -0.85815138 0.50235265
6.1070986 -45.636395 -128.06598 0.15981343 -0.84121317 0.51654625
7.1397862 -43.978378 -125.66204 0.08783105 -0.86013341 0.50245017
22.349424 -46.255482 -122.21678 -0.065453507 -0.87437665 0.48081309
29.313147 -42.99313 -123.25623 0.580585 -0.70496434 0.40736508
25.165085 -44.338459 -120.48496 0.41170239 -0.76952761 0.48818886
9.6242285 -43.736866 -125.227 -0.05848299 -0.86063612 0.50585103
-3.7492113 -46.75211 -122.61812 0.19968486 -0.8494454 0.48843476
22.791203 -44.839767 -119.88997 0.17233382 -0.83963484 0.51508671
8.2089052 -42.781513 -123.52463 0.034668498 -0.88187003 0.47021642
-4.4034829 -45.626434 -120.65325 0.15309034 -0.82714462 0.54073566
3.3881457 -42.626289 -122.01289 0.23368056 -0.83814478 0.49285579
8.7127352 -41.727879 -121.51233 0.0007184358 -0.87228465 0.48899794
5.8829665 -42.838623 -123.11591 0.14073071 -0.86294609 0.4853029
-6.8021269 -45.695385 -121.2821 -0.23448585 -0.821832 0.51923829
21.127337 -43.910591 -118.19712 -0.15214144 -0.8403405 0.52026981
11.177531 -41.042084 -120.0462 -0.13605034 -0.87126988 0.47157091
5.2951889 -42.024784 -121.63219 0.09863276 -0.85644573 0.50672692
23.566923 -42.286449 -116.41425 0.2174288 -0.79635346 0.56439865
21.636114 -42.585674 -116.52157 0.037653241 -0.78863692 0.61370504
9.5148296 -40.597729 -119.74413 -0.011269115 -0.87502611 0.48394465
-4.7786884 -43.01173 -117.13952 0.15775409 -0.81735635 0.55411392
7.0400467 -39.264183 -117.10681 -0.0030457585 -0.87482136 0.48443598
-4.9805894 -41.674892 -115.26823 0.056887209 -0.76623911 0.64003247
8.0652504 -38.055168 -114.81492 0.009415471 -0.88735455 0.46099162
5.1865058 -39.097122 -116.31965 0.16074157 -0.88163197 0.44371971
3.5872796 -38.540501 -114.54262 0.19134159 -0.87484699 0.44500688
1.998638 -38.47625 -113.37051 0.30085453 -0.85748422 0.41738158
-0.90067124 -38.273964 -109.84156 0.21606854 -0.89284563 0.3951467
5.375833 -37.184952 -112.5778 0.1399743 -0.88460273 0.44484293
14.459396 -35.800133 -104.67293 -0.38040918 -0.88339508 0.27368242
8.4724312 -34.543949 -107.59921 -0.09587609 -0.8994838 0.42630598
10.28918 -34.191822 -106.07752 -0.18646064 -0.92116332 0.34160024
6.6175628 -34.340611 -106.93266 0.098630868 -0.92256653 0.37301862
14.88924 -35.187996 -101.69848 -0.35860807 -0.90033054 0.24658719
13.566392 -34.169991 -100.66312 -0.47403196 -0.85789543 0.19826549
-0.56759709 -35.141933 -100.40182 0.40613204 -0.87561947 0.26143318
14.185113 -34.001091 -97.623871 -0.31977439 -0.91468334 0.24718168
7.4752545 -32.303192 -102.27579 -0.034161445 -0.92983669 0.36638328
13.645423 -33.143848 -96.031418 -0.3978405 -0.88841951 0.22898379
5.8418393 -32.029724 -100.94697 0.13233656 -0.91933596 0.37055144
-0.33813965 -33.955173 -97.020309 0.30062795 -0.89698756 0.32409278
-1.8658397 -33.484627 -96.339813 -0.1832663 -0.93641847 0.2992222
14.634734 -33.195496 -94.182625 -0.15462679 -0.97272038 0.17293233
5.311296 -30.606094 -97.377708 0.1007 -0.92981023 0.35399488
-0.21775931 -33.172039 -95.518768 0.52066708 -0.81851494 0.2427737
-1.6504002 -33.239231 -94.285637 -0.1366552 -0.96118814 0.23967199
0.22035788 -32.619061 -93.966942 0.66569602 -0.70944107 0.23139204
-0.98703939 -33.252659 -93.336449 0.12502904 -0.9534077 0.27455691
14.124823 -31.994293 -90.578331 -0.45912257 -0.87003291 0.17958075
5.9941697 -30.092405 -95.881271 0.055969529 -0.94286007 0.32845435
-1.7263523 -32.412716 -91.374161 -0.093010545 -0.95017582 0.29751471
13.927958 -31.790888 -88.611397 -0.55689192 -0.81658071 0.1518798
13.70376 -31.039745 -86.990105 -0.55197775 -0.80952948 0.19995657
5.1942596 -29.105095 -92.994781 0.18350905 -0.91594589 0.35688612
6.011539 -28.27434 -91.529236 0.027997365 -0.9546299 0.29647598
4.4339209 -28.318218 -90.352974 0.23172398 -0.92866927 0.28961614
13.545668 -30.46562 -84.077934 -0.54614198 -0.82121843 0.16531566
4.0589638 -27.318226 -86.804184 0.27168623 -0.90568024 0.32546875
12.76699 -29.385065 -80.441772 -0.52152479 -0.83848882 0.15795092
13.744936 -29.81102 -81.434174 -0.38306835 -0.90680635 0.17595671
13.138848 -29.064697 -78.384148 -0.54346991 -0.8238849 0.1607921
11.59185 -28.273796 -80.382851 -0.67562014 -0.72645187 0.12571813
5.0980124 -25.684378 -82.859062 0.063649505 -0.95691866 0.28329396
12.763221 -28.277327 -74.439415 -0.55679834 -0.82074904 0.12785426
-3.1160121 -28.808016 -77.72406 -0.22442582 -0.97400606 0.030745283
11.530868 -27.601879 -75.241104 -0.69205517 -0.71406198 0.10571278
5.824945 -24.891245 -80.22567 0.019145457 -0.96036071 0.27810207
12.5374 -27.538067 -71.398003 -0.53361744 -0.83581513 0.12909484
2.1434302 -25.151125 -77.659073 0.54639685 -0.80387074 0.23503678
-2.723707 -28.646046 -76.871323 -0.21941009 -0.94696742 0.23475933
5.8986101 -24.379118 -78.259232 -0.088711843 -0.9634797 0.25266004
3.6774592 -24.713644 -78.368073 0.2489745 -0.92557782 0.285162
5.9358974 -23.789083 -75.935066 -0.1720821 -0.95847028 0.22742602
11.921256 -27.172424 -69.774773 -0.57788593 -0.80272871 0.14722288
12.424605 -26.966623 -68.730446 -0.51284677 -0.84598976 0.14590964
12.005044 -26.597853 -65.903191 -0.62798911 -0.77561486 0.063649818
4.3276639 -24.015263 -76.381554 0.16549422 -0.95070219 0.26225385
5.2652597 -21.638493 -66.995972 -0.12334628 -0.96869999 0.2154204
2.2722788 -22.320642 -68.487953 0.40329298 -0.88287538 0.24059455
3.0312822 -21.784571 -66.905678 0.14196011 -0.95893806 0.24553014
1.7741281 -21.897495 -65.285774 0.52759725 -0.82003319 0.22178075
3.1985748 -20.932573 -63.970551 0.22699696 -0.95051056 0.21213688
1.0024103 -21.405716 -61.681747 0.49998096 -0.84256625 0.20025277
-3.2117589 -25.320913 -57.292152 0.34464762 -0.92793918 0.14193927
5.1285005 -20.583679 -61.967182 -0.14805144 -0.97071493 0.1891914
2.5608358 -20.219227 -59.938351 0.28969559 -0.93777472 0.19145474
4.2881079 -19.765207 -58.519794 -0.042120289 -0.98057258 0.19158116
1.5780519 -19.954771 -56.191399 0.31377843 -0.92974824 0.19264281
2.1875391 -19.275925 -55.170368 0.24624453 -0.95318991 0.17547832
0.74422336 -19.762741 -53.185837 0.54498374 -0.81766301 0.18552604
4.30651 -18.977842 -54.298489 0.022124719 -0.98689091 0.15986502
4.5349717 -18.642736 -51.358913 -0.16698191 -0.97607517 0.13926364
1.8729628 -18.523977 -50.586388 0.20677848 -0.95967287 0.19044816
10.643804 -22.38114 -41.82383 -0.43440673 -0.89102262 0.13179338
4.6308646 -18.319513 -50.520985 -0.14416046 -0.9733634 0.17827365
1.3098905 -17.891422 -46.488308 0.37387177 -0.91105002 0.17380376
10.680611 -22.038582 -38.35368 0.0307936 -0.9767043 0.21236885
2.6465597 -18.167181 -48.656601 0.12775311 -0.97188616 0.19777876
1.7151698 -17.711081 -44.638149 0.19901407 -0.96798176 0.15298577
4.1326895 -17.473213 -44.497326 -0.072727233 -0.99212354 0.10198876
0.96011466 -17.324644 -42.748726 0.48000476 -0.85742074 0.1855403
1.7354342 -16.959314 -41.542294 0.16385329 -0.97632337 0.14122634
-6.0970988 -22.311991 -34.664417 -0.098471254 -0.99066347 0.094282232
3.9181936 -16.793102 -39.557316 -0.18731634 -0.97539294 0.11628097
-0.36271128 -17.544504 -38.492752 0.57085395 -0.80678493 0.15239394
3.3196423 -16.321466 -37.327812 -0.12109752 -0.98332673 0.13566135
3.0995452 -15.898256 -33.801884 -0.042499043 -0.99500519 0.090324067
1.0557081 -16.576876 -37.864231 0.22394772 -0.96491325 0.13707629
0.045699548 -16.57543 -34.368092 0.44238052 -0.89028144 0.10815878
3.735019 -15.919802 -31.672226 -0.15247653 -0.98509169 0.079657711
1.05967 -15.992647 -32.095257 0.14446427 -0.98219728 0.12007754
1.2519832 -15.554983 -30.019957 0.14537212 -0.9827016 0.1147372
3.323019 -15.499394 -29.785261 -0.099916801 -0.99199456 0.077223159
0.44428733 -15.536309 -27.407122 0.18383427 -0.98223716 0.037618358
9.4260616 -19.115114 -10.874948 -0.2389563 -0.97036576 0.035918433
9.4059772 -18.74917 -4.8107891 -0.18898965 -0.98123562 0.038202882
10.083864 -19.225321 -6.5239024 -0.011969859 -0.99827665 0.057448909
0.09230797 -26.274899 16.938896 0.048530553 -0.9965893 0.066740863
0.9533276 -25.915976 21.156725 0.1525269 -0.98535144 0.076276414
-0.56029177 -25.805897 23.877375 -0.00023559702 -0.99670678 0.081089608
-0.38559592 -25.523247 28.807474 0.10047617 -0.99145943 0.083142899
-2.6372416 -25.362061 30.118292 -0.065402918 -0.99661005 0.049909797
-1.1777649 -25.319374 32.664719 0.026382353 -0.99880731 0.041083593
0.7525354 -24.68404 37.801113 0.1563943 -0.98625618 0.053286694
-1.1452165 -24.908924 39.271965 0.039611831 -0.99822563 0.044457536
-3.1280003 -24.670931 41.553032 -0.06178562 -0.99561644 0.070216812
3.4260752 -23.603888 43.79401 0.38818467 -0.91966075 0.059470981
0.52309746 -24.278606 44.58633 0.1651486 -0.98486364 0.052626736
2.0871286 -23.809467 45.789219 0.26204526 -0.9631179 0.061124053
6.3235807 -21.817734 45.510853 0.54871577 -0.83416259 0.055532314
4.0217505 -23.121933 47.459953 0.42532429 -0.90321708 0.057430163
0.012351128 -24.255739 47.472015 0.11497372 -0.99286449 0.031638231
5.1477556 -22.347645 48.34483 0.51995862 -0.85039318 0.080463469
3.0518715 -23.275471 51.368763 0.36544412 -0.92888951 0.060123611
-0.43410996 -24.226164 50.27021 0.087802276 -0.99486196 0.050403476
4.4001155 -22.570503 50.177647 0.50214112 -0.86444008 0.024445726
-0.20822683 -23.934099 53.850117 0.11529517 -0.9923079 0.045077551
1.3396497 -23.742462 50.885582 0.2569789 -0.96477383 0.056332275
-0.29164124 -23.711039 59.035809 0.17236355 -0.98386163 0.04803228
-3.00365 -23.980848 59.668812 0.046547312 -0.99849117 0.029132938
2.1676049 -23.127001 60.727657 0.29967007 -0.95291281 0.046421792
