# .PCD v0.7 - Point Cloud Data file format
VERSION 0.7
FIELDS x y z normal_x normal_y normal_z
SIZE 4 4 4 4 4 4
TYPE F F F F F F
COUNT 1 1 1 1 1 1
WIDTH 718
HEIGHT 1
VIEWPOINT 0 0 0 1 0 0 0
POINTS 718
DATA ascii
8.7435207 -14.03109 3.2937684 0.20712712 -0.84171575 -0.49861103
11.859362 -15.093535 9.445096 0.37063178 -0.76895058 -0.52090991
8.3823395 -12.305102 -0.40749273 0.046859104 -0.84090239 -0.53915441
32.299751 -24.946436 55.201149 0.50752789 -0.76999599 -0.38668028
10.232191 -13.391538 2.6019101 0.46366942 -0.80321258 -0.37397879
10.191348 -12.526772 0.28913042 0.41652808 -0.85417384 -0.31127363
29.318449 -22.283688 45.7589 0.50440848 -0.75770426 -0.41407278
31.437407 -23.028543 50.21946 0.52396291 -0.76234788 -0.37985343
-4.011271 -4.6548543 -33.800583 0.51401466 -0.78134197 -0.35396826
0.05461368 -6.9523959 -23.725103 0.52167863 -0.76081526 -0.38602027
9.0076599 -11.647532 -1.1626841 -0.17994621 -0.90921938 -0.37541905
-8.3048325 -16.657949 -13.980856 0.02784577 -0.76371711 -0.64495021
25.230789 -19.427441 34.906364 0.50530243 -0.77172202 -0.38615364
32.938675 -23.172617 52.420097 0.496575 -0.77543318 -0.3900212
-0.3143985 -4.9709296 -28.085773 0.48549935 -0.78839463 -0.37778875
10.879286 -12.210617 -1.8331633 0.62928444 -0.77633518 0.036123443
25.607136 -18.076666 32.997131 0.48902664 -0.77180803 -0.40640536
27.781052 -20.424269 39.704327 0.54342926 -0.75272328 -0.37160772
29.754192 -20.645666 43.017796 0.52088237 -0.75224692 -0.40349251
-2.2845197 -5.6545815 -28.859715 0.45062998 -0.79318607 -0.40962011
11.207139 -10.769356 -2.2143302 0.68673253 -0.66330874 -0.29735479
31.087626 -20.771023 45.133621 0.52748734 -0.75250125 -0.3943336
-6.7242765 -3.5124431 -40.257347 0.48838279 -0.83753669 -0.2449788
32.830322 -21.369509 48.735386 0.51735568 -0.75755274 -0.39806661
6.1080203 -5.9754591 -17.468801 0.51559544 -0.76125717 -0.39325431
29.40712 -19.079418 39.91338 0.55284625 -0.74079078 -0.38156271
-4.2540002 -3.7628949 -36.23999 0.48800001 -0.80327672 -0.34147111
30.967293 -18.99309 41.927444 0.55184132 -0.71655893 -0.42663148
-2.0879991 -10.867976 -61.277451 0.3757439 -0.85540724 -0.35650396
-3.6443841 -2.7522242 -38.006145 0.47840944 -0.82271343 -0.30702934
-2.0343494 -3.4736063 -34.048702 0.4911873 -0.80749577 -0.32662764
29.269445 -15.982776 33.56448 0.60715336 -0.71907139 -0.33808446
-1.8559868 -9.4967594 -62.918575 0.34061047 -0.68778026 -0.64104825
-0.21335873 -10.006777 -61.245613 0.27397865 -0.81084114 -0.51717728
-0.86093998 -10.52096 -60.325672 0.3070153 -0.89865923 -0.31329414
-4.8339067 -2.830039 -39.82452 0.44494545 -0.8541317 -0.26922598
-0.64318329 -2.0466645 -35.408237 0.48869237 -0.81032038 -0.32335854
6.6023884 -3.2936907 -22.665377 0.49574262 -0.79604113 -0.34721437
23.713778 -36.610722 68.242538 0.13010454 -0.60954946 -0.78199893
-63.589561 -65.784599 11.415813 0.47571182 -0.78514588 -0.39654016
-61.625393 -64.633209 10.241778 0.17715666 -0.86626291 -0.46712327
-53.689575 -65.264503 22.066536 0.62584949 -0.67812443 -0.38530457
9.9494858 -7.094811 -9.0186901 0.66943902 -0.73756421 -0.088602871
17.075178 -13.359358 10.95756 0.098788828 -0.95369118 -0.28410196
27.714821 -22.178093 42.684395 0.59278554 -0.70365232 -0.39176345
18.224806 -13.234128 10.292797 0.5350703 -0.72717869 -0.43001273
8.2907877 -8.47369 -56.042511 0.33457708 -0.93900287 -0.079572134
19.637999 -12.940637 11.913962 0.80277812 -0.56249779 -0.19784747
-81.962563 -73.745735 2.9886932 0.5974704 -0.74961013 -0.2848047
-81.862717 -72.875092 1.7512993 0.56554323 -0.73832756 -0.36746868
-80.946541 -71.753418 0.81673473 0.24220832 -0.88143367 -0.40547478
-81.482353 -71.447632 -1.168499 0.65984315 -0.72932601 -0.18080504
-80.834114 -72.697838 2.7084212 0.21064276 -0.89541596 -0.3922497
-81.457237 -71.373238 -3.3316753 0.85555196 -0.46739766 -0.22264369
-80.580902 -70.573921 -1.642197 0.36493436 -0.82418436 -0.43306243
-81.501671 -69.884445 -4.5243406 0.81972361 -0.4401139 -0.36654183
-43.446857 -70.082153 45.52121 0.31358722 -0.9241727 -0.21810094
13.322713 -6.7588401 -5.8859906 0.51201963 -0.75298494 -0.41333947
27.288971 -19.253637 37.008896 0.52248037 -0.75719798 -0.39200199
9.7460518 -7.994782 -54.909302 0.22209126 -0.96859139 -0.11183096
30.959532 -4.5601645 12.738319 0.45263726 -0.80794793 -0.37727913
9.6200724 -5.4463015 -13.838072 0.54888237 -0.76159066 -0.34454009
27.264416 -16.358194 31.485794 0.45793477 -0.79373074 -0.400359
41.567318 -32.115288 57.71936 -0.31756729 -0.65377611 -0.6868245
40.211937 -32.550137 58.674419 -0.31997764 -0.56345373 -0.76166546
12.075586 -4.3258948 -11.048227 0.54984921 -0.78128356 -0.2954011
-26.517225 -24.045456 -26.926882 0.434872 -0.8983621 0.061901595
15.025507 -8.1812935 -1.1635742 0.43692061 -0.82270122 -0.36368012
34.891098 -7.5801082 24.394802 0.50727439 -0.77577317 -0.3752982
-77.311256 -80.587013 23.930107 0.35854504 -0.80960625 -0.46473992
-74.485962 -82.731689 33.012997 0.10894625 -0.92542744 -0.36292535
-73.510857 -83.458199 35.644356 -0.061347775 -0.95850742 -0.27838799
-71.849411 -84.016716 38.645576 0.19864455 -0.93724674 -0.28654674
-71.125237 -84.837212 41.046108 0.13817123 -0.96784198 -0.21021549
-76.7173 -79.811989 23.0382 0.54336584 -0.77467233 -0.32347527
-33.455173 -24.24198 -34.168312 0.57846314 -0.6833756 -0.44539687
2.8467391 -9.579217 -55.374489 0.16730148 -0.97881728 0.11801242
-71.706657 -83.889496 36.606415 0.32856897 -0.90319151 -0.27620217
-72.559937 -84.100121 37.730885 0.000908916 -0.9830302 -0.18344189
-80.913002 -76.267944 11.569303 -0.0055482346 -0.93064892 -0.36587122
-81.893288 -75.953766 8.5354481 0.6091094 -0.74629325 -0.26838809
-79.303757 -78.280479 16.931736 -0.079502948 -0.98227251 -0.1697647
-75.975632 -79.431053 24.013292 0.57684976 -0.7332285 -0.3600283
-76.201263 -80.804474 25.161839 0.66298854 -0.59506893 -0.45424566
-81.605057 -75.090126 6.7436438 0.60569632 -0.72699165 -0.32344267
-80.793617 -75.345436 9.3385983 0.093331493 -0.92525649 -0.36768144
-77.799568 -78.074341 17.350534 0.68390846 -0.68935007 -0.2388842
-75.123383 -80.295479 26.382465 0.53255737 -0.73015267 -0.42808846
-69.58387 -84.437431 40.218616 0.41204357 -0.8080852 -0.42097324
-68.51387 -84.067986 41.07402 0.68273669 -0.58107787 -0.44296634
-81.936989 -74.184555 4.7092576 0.59497958 -0.72364426 -0.34976909
-80.877678 -74.33416 6.4685111 0.26615408 -0.86431277 -0.42676169
-80.819901 -74.874168 7.9407778 0.14630286 -0.93734866 -0.31618512
-79.122208 -75.447472 8.705267 0.2897149 -0.90589696 -0.3088949
-70.183174 -83.225105 37.738625 0.53716761 -0.74562681 -0.39432421
-68.491287 -82.904503 40.604305 0.61568803 -0.65035069 -0.44494069
-66.207054 -84.823395 46.027088 0.45589879 -0.80941457 -0.37014106
-66.971954 -85.092995 47.14901 0.16908732 -0.9630872 -0.20945735
-64.583519 -85.304855 50.369877 0.26424992 -0.92645973 -0.26803786
-79.159088 -74.163849 5.8599739 0.40734544 -0.78096122 -0.4734652
-81.011398 -73.66214 5.2721248 0.18852608 -0.8956601 -0.40280384
-65.331329 -84.847656 47.983196 0.40782815 -0.85855973 -0.31072736
-63.372219 -85.510399 52.122337 0.45222649 -0.81552362 -0.3611266
-80.982193 -71.147034 -0.66203749 0.19312492 -0.8955524 -0.40085995
-79.519516 -72.641106 2.5258439 0.39231518 -0.82570028 -0.40534902
-61.893066 -85.030434 53.284336 0.38849407 -0.88140136 -0.26870796
-63.079556 -83.313934 47.983566 0.52357996 -0.75754565 -0.38985693
-78.067467 -71.263275 3.047091 0.64610434 -0.64784586 -0.40354055
-59.821838 -84.598167 53.740402 0.45936385 -0.81423241 -0.35497934
-80.572281 -69.491074 -3.2528975 0.24404566 -0.78684807 -0.56684381
-79.061142 -71.821854 0.83402455 0.52886492 -0.79607582 -0.29421952
-78.373497 -70.901161 -1.4490695 0.32565606 -0.87243158 -0.36443275
-78.067886 -69.243713 -1.15148 0.78728777 -0.5877772 -0.18626842
-78.366539 -70.532959 1.6894746 0.59222811 -0.72702688 -0.34741592
-58.428379 -84.402855 55.403 0.54015583 -0.77241278 -0.33408111
-60.133633 -84.691269 55.168873 0.19131742 -0.98127723 -0.022196252
-76.130394 -68.48999 -0.1252199 0.41169336 -0.83185053 -0.37220061
-76.780411 -68.075348 -2.2636306 0.53326714 -0.79119575 -0.29939178
-73.286194 -70.639343 8.0675735 0.48274198 -0.80744898 -0.33909637
-73.566505 -71.860558 10.91497 0.49556404 -0.7842772 -0.37326345
-70.97332 -73.203369 16.264254 0.49932429 -0.7789554 -0.37934646
-63.555244 -77.121788 34.342552 0.45884719 -0.79489255 -0.39699504
-71.067619 -69.653496 8.4598045 0.48960295 -0.7966457 -0.3544637
-70.767487 -72.144814 14.506792 0.48712388 -0.77428722 -0.40396744
-61.107162 -80.544418 45.033546 0.49736872 -0.80338967 -0.32739818
-68.168732 -72.381836 18.193876 0.48312643 -0.78045142 -0.39684302
-61.157555 -76.257782 35.386986 0.47568715 -0.78080231 -0.40505481
-53.151428 -39.379261 -29.821501 0.6719746 -0.69187963 -0.26410729
-60.096863 -79.631821 44.054665 0.51730573 -0.79527909 -0.3161107
-59.358559 -78.241096 41.315704 0.49440616 -0.79566473 -0.34997165
-60.163334 -79.201172 42.732826 0.48458755 -0.79642254 -0.36178192
-78.785233 -64.044762 -13.378235 0.21384299 -0.84525239 -0.48971373
-68.505653 -70.936279 15.082548 0.49750146 -0.81261021 -0.30357349
-62.5686 -75.810707 32.887314 0.50215936 -0.80728358 -0.31004706
-58.062119 -79.429993 46.484276 0.46986052 -0.78682625 -0.4001694
-56.659565 -80.16552 49.343353 0.44799027 -0.82545543 -0.34340632
-78.46904 -63.003578 -14.505302 -0.032971416 -0.78497398 -0.61865079
-76.175484 -65.083015 -11.612054 0.42433843 -0.9054876 0.0053924941
-78.552994 -62.033443 -15.601624 0.011963734 -0.8282038 -0.5602994
-75.854027 -63.961159 -13.249477 0.71548432 -0.65818352 -0.23425744
-76.182373 -63.941444 -11.111108 0.78338957 -0.61940169 -0.051402494
-68.748123 -71.622658 16.132366 0.47309518 -0.79618108 -0.37719575
-77.950539 -61.554127 -16.356342 0.036272813 -0.86909932 -0.4933058
-75.540016 -62.695885 -12.157013 0.75312072 -0.6203568 -0.21901305
-75.678276 -64.031265 -9.1266098 0.60288584 -0.71438414 -0.3552238
15.432753 -29.625067 41.566395 0.3707068 -0.79551262 -0.47930804
-61.594364 -74.890053 31.540455 0.48313776 -0.84828711 -0.21676448
-59.92289 -74.778893 33.833511 0.49270827 -0.80421597 -0.33237821
-57.828594 -78.120003 44.292397 0.51149392 -0.78633279 -0.34648931
-76.49839 -63.215942 -14.600636 -0.016830994 -0.78945297 -0.61358029
-72.566032 -63.660461 -5.8110466 0.46131489 -0.82528466 -0.32572064
-70.456848 -66.25956 2.2532463 0.44479626 -0.81035936 -0.38141057
-69.126457 -66.371933 3.6463299 0.39902654 -0.85210699 -0.33866143
-68.437653 -67.221535 6.2840867 0.46412066 -0.8186819 -0.33815986
-68.739662 -67.82206 7.4740992 0.46601617 -0.81112492 -0.35341939
-64.442871 -70.638939 19.542408 0.46819779 -0.79497331 -0.3857567
-64.017159 -72.21151 22.615417 0.45094734 -0.81467849 -0.36461693
-75.111526 -62.684959 -14.937518 0.54752004 -0.74961638 -0.37188324
-73.737167 -63.481762 -8.1255102 0.50531965 -0.75546962 -0.41703427
-71.477722 -64.395355 -2.9630499 0.42711848 -0.80378568 -0.41412354
-63.449993 -69.673912 18.43655 0.55822843 -0.73001009 -0.39429221
-61.66774 -74.935638 30.48802 0.48836204 -0.85457069 -0.17666748
-54.811649 -76.334831 44.361767 0.45025352 -0.77462012 -0.44411188
-55.791737 -76.08432 42.445026 0.54827219 -0.77695543 -0.30941525
-55.303898 -77.542549 45.847439 0.44893813 -0.76642281 -0.45940247
-71.065643 -65.186607 -1.5485606 0.4664543 -0.8042894 -0.36815622
-69.042183 -65.943024 1.976311 0.36727375 -0.84083939 -0.39761686
-66.894302 -66.923019 8.2544518 0.45634145 -0.82745594 -0.32721415
-60.744366 -69.533745 23.208817 0.42259309 -0.82694536 -0.37091288
-58.578289 -72.794952 30.619225 0.56741893 -0.78366822 -0.25278422
-74.736061 -60.841526 -15.669725 0.87176532 -0.48951107 -0.020104261
-75.172539 -61.546886 -14.045529 0.87968647 -0.47517577 -0.01896476
-70.350296 -65.030182 0.40571237 0.4480345 -0.80310732 -0.39278978
-64.252167 -69.929092 17.36554 0.49094272 -0.81389624 -0.3107219
-62.746548 -70.998024 21.495209 0.53826487 -0.75054979 -0.38333511
-61.062927 -68.552193 20.098412 0.4530845 -0.778696 -0.43398964
-57.43676 -72.770462 33.159092 0.55567229 -0.75447351 -0.34928226
-73.984047 -59.311321 -16.844227 0.67131287 -0.690938 -0.26822343
-65.826355 -64.742226 4.4292579 0.58505625 -0.745125 -0.32015312
-65.311668 -66.92366 9.8423347 0.57122213 -0.7469731 -0.3402006
-61.805195 -68.068398 18.166107 0.50464821 -0.78389627 -0.36171356
-57.034218 -71.531364 31.067928 0.62672889 -0.71226865 -0.31604448
-54.057278 -75.023148 43.207371 0.46415791 -0.7204423 -0.51528668
-52.514565 -74.907028 43.751007 0.43166727 -0.76596159 -0.4764097
-66.273705 -65.755241 5.9694543 0.53743345 -0.77125692 -0.34106904
-60.192699 -69.00856 21.622267 0.41864464 -0.85286719 -0.31201652
-59.480804 -70.594246 25.668758 0.47425151 -0.76954377 -0.427654
-64.488152 -64.591454 7.1528215 0.62871861 -0.68499291 -0.36810002
-56.558681 -70.367401 29.484585 0.4298518 -0.84846449 -0.30876449
-54.116295 -72.593346 37.280609 0.52955812 -0.74820626 -0.39969462
-70.738953 -60.497696 -10.619507 0.50643724 -0.7686137 -0.39083803
-62.917694 -64.36808 9.0249968 0.53641266 -0.74968553 -0.38759923
-58.231194 -69.124756 22.433235 0.32966095 -0.85893792 -0.39185363
-59.479214 -68.040909 19.756384 0.39503559 -0.7959308 -0.45873839
-57.525951 -69.654671 25.204466 0.31670648 -0.88248169 -0.34773999
-55.676144 -71.011299 32.354481 0.50974268 -0.80385256 -0.30656722
-50.246056 -74.666832 45.959885 0.48889393 -0.7925145 -0.36455938
-51.366901 -74.608406 44.60643 0.4694216 -0.75380623 -0.45980376
21.811049 -13.095547 17.905741 0.68949729 -0.64814574 -0.32326552
-57.931377 -67.72393 21.722187 0.60458535 -0.50952882 -0.61225557
-56.608097 -68.166534 23.038748 0.51146358 -0.71585953 -0.47534224
-54.228321 -70.470367 30.93816 0.33505216 -0.83332491 -0.43967003
-54.500137 -70.675987 32.15176 0.035345349 -0.99912667 0.022283293
-53.760254 -70.648132 34.165386 0.13643609 -0.95792174 -0.25252968
-70.495811 -58.617485 -13.795427 0.45515245 -0.80796748 -0.37419894
-67.927673 -60.157486 -8.388442 0.36652258 -0.85892719 -0.35763839
-65.580505 -59.228611 -6.9520931 0.50326794 -0.81100136 -0.29832575
-60.73801 -65.355888 11.708314 0.26853827 -0.90010095 -0.34308222
-53.400505 -69.274155 30.866421 0.10068142 -0.85267168 -0.51265419
-52.426018 -71.0923 33.36731 -0.033768088 -0.99843109 0.044666417
-52.058105 -71.049858 35.33046 0.23838063 -0.96372002 -0.12007627
-53.38015 -71.108803 35.717319 0.45934334 -0.8016355 -0.38260186
-51.988972 -73.258423 42.137882 0.46433666 -0.7225548 -0.51215816
-50.645008 -72.576057 42.157455 0.42266145 -0.77013022 -0.47776219
-68.036118 -58.187332 -11.799719 0.47046044 -0.80779737 -0.35514832
-68.721703 -59.041553 -10.994243 0.47467551 -0.78782386 -0.39244965
-67.028419 -59.821533 -7.3321676 0.44864041 -0.83743542 -0.31212792
-66.566513 -59.585281 -8.868371 0.41303876 -0.89763254 -0.15380158
-64.428017 -59.265373 -4.6199765 0.52521813 -0.78164387 -0.33642069
-59.03738 -64.656555 11.014976 0.47677866 -0.84224552 -0.25160387
-53.252052 -68.610809 29.300713 0.57045341 -0.53069359 -0.62685508
-48.319885 -72.739899 44.459541 0.50936788 -0.74769098 -0.42603105
-68.484596 -56.992599 -15.025422 0.46223998 -0.78926909 -0.40421355
-51.545883 -70.351395 33.586807 0.60795206 -0.71777731 -0.33939636
-49.036865 -72.131821 42.924831 0.49692759 -0.74107999 -0.45151237
-68.702942 -55.088238 -18.224682 0.43455619 -0.80064046 -0.41247511
33.409832 -20.055101 47.350445 0.52121395 -0.7603935 -0.38747606
-50.377762 -69.778809 34.735668 0.63363391 -0.7188282 -0.28599659
-63.073288 -57.717144 -6.9981556 0.53687626 -0.80821556 -0.24197422
11.276694 -7.8458605 -55.26553 0.27982655 -0.94290423 -0.18063393
12.595936 -7.2474065 -54.054707 0.38693592 -0.9155184 -0.11003055
-53.363331 -67.307457 27.899418 0.41763273 -0.81560332 -0.40046728
-52.923145 -67.679886 29.696985 0.63934356 -0.5400179 -0.54737604
-48.815605 -70.845261 40.705254 0.29519987 -0.90993845 -0.29132295
-46.890991 -71.081673 41.250248 0.14184971 -0.98260307 -0.11987443
-47.951645 -71.066193 43.110458 0.33995911 -0.88281798 -0.32412997
-46.187504 -71.012756 44.228992 0.45375353 -0.85692441 -0.24451628
-67.40712 -55.295769 -17.236998 0.42732471 -0.79337716 -0.4335278
-50.440456 -66.743553 29.346247 0.53547722 -0.7183702 -0.44408137
-47.347057 -70.690994 40.011993 0.44246185 -0.81150019 -0.38170013
-45.513126 -70.188553 41.427044 0.51045805 -0.77802539 -0.36620906
-45.819401 -70.604141 42.554543 0.43922147 -0.86402833 -0.24604788
-53.573647 -63.702065 19.49383 0.56148916 -0.73251373 -0.38490713
-51.666286 -66.453293 27.878635 0.42278549 -0.75427723 -0.50231284
9.7001686 -1.8072056 -21.293343 0.51320493 -0.78856277 -0.33880603
-66.986649 -54.176365 -18.702755 0.46827319 -0.78284508 -0.40972391
-46.21701 -68.300995 39.397835 0.65787041 -0.61153477 -0.43958145
-44.901752 -70.07338 42.479866 0.42767632 -0.82056129 -0.37917277
-56.928173 -59.876774 6.9800148 0.55489957 -0.76944643 -0.31628895
-57.385983 -60.847313 8.1607113 0.44593868 -0.85406816 -0.26778018
-45.608719 -67.856628 39.690002 0.54815948 -0.64911246 -0.52742225
-45.929062 -69.227165 39.557247 0.64048719 -0.5032686 -0.58008337
-44.802986 -67.798485 40.170856 0.51918519 -0.77191252 -0.3668758
-44.226341 -70.431572 43.510956 0.48635402 -0.85526168 -0.17884941
-40.250568 -71.349281 52.13689 0.54121345 -0.75366682 -0.37292659
-40.211533 -75.853447 63.101139 0.50514209 -0.8059321 -0.30871496
-49.728394 -65.052612 27.572969 0.5615617 -0.73213089 -0.38552922
-43.272205 -69.238976 42.288139 0.61953014 -0.64874804 -0.441937
-44.564182 -69.489273 41.376053 0.67061567 -0.44404349 -0.59422225
-41.702293 -71.810623 51.407089 0.44522521 -0.81527555 -0.37027049
-36.894989 -72.925598 61.204029 0.51035208 -0.79715008 -0.32263362
14.423138 -7.5641313 -3.0558443 0.50229853 -0.76448691 -0.4040494
16.078939 -6.4083033 -2.939846 0.52143639 -0.75616181 -0.39537755
-53.591896 -58.218426 8.734808 0.49328378 -0.80705822 -0.32454291
-55.065701 -60.429882 11.198168 0.52074128 -0.77536237 -0.35726979
-48.150188 -63.99231 27.466864 0.55816364 -0.78027201 -0.28218597
-47.679195 -64.729897 30.437988 0.5618751 -0.73284996 -0.38370216
-45.353977 -67.230042 37.639561 0.45332465 -0.81502807 -0.36086854
-44.005966 -67.715218 41.534447 0.50167429 -0.55741215 -0.66152453
-42.527721 -68.938927 42.912762 0.50463974 -0.69381279 -0.51377279
-42.78112 -69.174622 44.929535 0.51251799 -0.82555926 -0.23617187
-42.075905 -70.625374 46.137733 -0.03994571 -0.79209459 -0.60908985
-36.601238 -74.160652 64.152519 0.47526595 -0.81572104 -0.32972941
22.637413 -9.8192329 13.192896 0.61596495 -0.73727149 -0.27752122
21.830484 -10.904913 12.996467 0.5168556 -0.77375257 -0.36628851
-64.692474 -52.60664 -18.875837 0.49411637 -0.7763744 -0.39126939
-51.884342 -63.16687 20.939604 0.58416313 -0.72053039 -0.37361661
-43.85025 -66.124161 37.953293 0.5947237 -0.70082569 -0.39388707
-42.548286 -67.766273 42.669445 0.73797047 -0.45634469 -0.49714103
-62.427021 -52.876656 -15.305964 0.53326571 -0.74622661 -0.39846399
-53.123543 -58.871567 10.740561 0.5273391 -0.77312887 -0.3523992
-51.424942 -61.628216 18.449913 0.5856455 -0.71977031 -0.37275997
-44.076614 -67.542732 39.519039 0.49138749 -0.76366603 -0.41875115
-42.445763 -67.225349 40.995815 0.60646456 -0.69444942 -0.3872219
-35.088043 -73.101837 64.133438 0.50752312 -0.78521258 -0.35476974
-53.836086 -60.717289 14.078281 0.53504521 -0.77988189 -0.32482445
-49.90876 -62.147427 22.189167 0.5749771 -0.73224181 -0.36499757
-40.281994 -69.662262 50.129173 0.40676498 -0.884359 -0.22902289
-38.889751 -69.539513 51.407715 0.41863608 -0.8707962 -0.25779402
12.914001 -6.8935156 -55.867973 0.30840936 -0.94810349 -0.077352881
-62.949417 -51.586823 -18.900467 0.47861055 -0.82971531 -0.28723571
-56.288933 -56.287601 -0.59222889 0.47337976 -0.80949557 -0.34731612
-38.275654 -69.26226 48.461918 0.34911096 -0.91538078 0.20049813
-37.095524 -69.339043 53.297279 0.50464034 -0.75034881 -0.42698348
12.853062 -7.1471734 -52.552166 0.20649983 -0.96038538 -0.18713005
-54.883938 -54.984673 -0.18285552 0.60341436 -0.71407145 -0.35495517
-30.364447 -68.129906 59.028049 0.60132957 -0.72492588 -0.33598384
-48.924389 -60.402374 19.78513 0.50937909 -0.77658349 -0.37074393
-37.666668 -68.846489 49.299759 0.28215301 -0.94158 -0.18389332
-37.591675 -70.477829 54.447449 0.50255841 -0.78924453 -0.35288543
11.055329 -0.31987736 -22.913443 0.46259603 -0.80967337 -0.36115611
9.3305101 -1.1851474 -23.215406 0.49084213 -0.80378777 -0.33615348
-35.054806 -72.410385 62.7034 0.50717998 -0.78452343 -0.35677928
-55.799694 -55.123878 -2.4214265 0.57248622 -0.74711961 -0.3377454
-49.448483 -58.772274 15.228796 0.42907548 -0.86791879 -0.25022236
-44.577965 -62.458416 29.851213 0.60402089 -0.62347305 -0.4964273
15.661099 -4.6139355 -6.8967366 0.50543427 -0.76018536 -0.40823334
16.877579 -6.6524472 -1.3357421 0.51690495 -0.74873024 -0.41498464
-54.898167 -53.683563 -1.9855211 0.64431423 -0.61768645 -0.4509131
-7.545691 -51.879047 56.153645 0.51964694 -0.61124068 -0.5969522
-35.14101 -35.628635 -12.971685 0.57241946 -0.62901336 -0.52600205
23.7915 -11.715433 18.187773 0.49535933 -0.8088274 -0.31688699
-60.704571 -50.632442 -18.738226 0.39211962 -0.91979373 -0.014888342
-59.462688 -50.125454 -17.351805 0.44030216 -0.87389374 -0.20601876
-24.008665 -63.334995 57.232574 0.51000237 -0.84595793 0.15573317
-35.946655 -68.409836 52.193687 0.44574645 -0.88722438 -0.11892433
25.278959 -12.023478 20.376535 0.46327925 -0.78306776 -0.41494244
-53.487053 -55.206005 2.152961 0.5313217 -0.78483605 -0.31895074
14.402258 -6.8493409 -54.437588 0.16873249 -0.96624452 -0.19468148
-36.650028 -67.744446 48.412689 0.51777697 -0.46219122 -0.71992105
-35.67643 -68.344765 49.536789 0.45248356 -0.83703333 -0.30762619
14.607902 -6.7158208 -51.460796 0.40233624 -0.89596385 -0.1880804
10.02182 1.5256151 -29.362782 0.35910147 -0.89753276 -0.25589278
9.8082571 -0.28857425 -25.02445 0.52463484 -0.75359851 -0.3960399
-37.514431 -66.486641 47.228176 0.45418784 -0.73942006 -0.49696222
-36.075497 -66.232399 48.294399 0.48166037 -0.55287164 -0.67995316
-34.381443 -67.259209 50.043892 0.63595474 -0.49024904 -0.59600121
14.967587 -1.3899158 -14.936268 0.44661593 -0.82084173 -0.35602391
13.152788 -3.3641276 -12.350209 0.4733592 -0.81216961 -0.34104496
13.657146 -4.1288533 -10.709392 0.27801558 -0.83510321 -0.47466844
-52.293335 -53.921829 1.5364517 0.60729778 -0.72062397 -0.33450028
-34.725864 -65.237625 47.548885 0.50569981 -0.7434361 -0.43768778
-34.412941 -65.714409 49.452759 0.69472682 -0.54004639 -0.47508359
-36.32003 -64.205544 44.285351 0.46205729 -0.75549877 -0.46446177
-33.105732 -65.909584 50.681889 0.54391187 -0.48643792 -0.6837675
21.179958 -10.703723 11.476708 0.52603793 -0.77141964 -0.35804456
-51.665127 -50.129787 -6.3550348 0.52518117 -0.78661776 -0.32468018
-53.025604 -53.171638 -1.1317915 0.55328655 -0.74901354 -0.36448959
-32.356075 -66.964531 51.394138 0.42544007 -0.87098485 -0.24573576
-35.331623 -62.76667 42.81031 0.50985992 -0.78747326 -0.3463074
23.345312 -5.3560081 -49.749908 0.21537803 -0.96741378 -0.13312677
-33.119701 -65.275116 49.633572 0.62051517 -0.65254939 -0.43490255
9.8653059 0.5586285 -25.825079 0.42357379 -0.84789181 -0.31884906
12.651633 -0.33985382 -20.415251 0.45187479 -0.8411026 -0.29724678
-29.65942 -66.003502 56.514778 0.51660997 -0.80406249 -0.29427478
-28.15395 -66.255081 58.75478 0.50632483 -0.76511538 -0.39778605
14.971034 -2.5175405 -12.53386 0.46211287 -0.84568417 -0.26696435
-31.609114 -61.355503 46.581627 0.54698652 -0.81199598 -0.20363757
-28.07028 -65.372833 54.309551 0.40528339 -0.90498227 -0.12943101
-31.473009 -62.14024 47.738171 0.63868707 -0.72461951 -0.25885397
-28.633495 -63.835957 53.330032 0.46800441 -0.52205414 -0.71304369
-27.530861 -64.854004 56.195293 0.4080261 -0.90852934 -0.089938909
-26.921476 -64.744385 57.632607 0.44857988 -0.88842463 -0.097353958
-53.944706 -42.549717 -28.782518 -0.08211457 -0.9417209 -0.32621917
-56.046833 -42.540413 -27.644674 0.31998682 -0.88892692 -0.32774594
-30.176517 -62.197693 46.873535 -0.36396483 -0.79008251 -0.49325365
-53.639862 -42.676517 -24.372932 0.42502666 -0.85747504 -0.28998071
-27.121376 -64.707573 54.057907 0.38153508 -0.31309336 -0.86971462
-26.261412 -64.670586 54.671104 0.52433735 -0.64406908 -0.5569967
-25.797745 -64.608353 55.732304 0.36833739 -0.92877382 -0.041312162
-55.502403 -41.523708 -30.304321 -0.015935499 -0.83742923 -0.54631335
-53.130196 -42.529472 -25.568541 0.025453517 -0.99921089 -0.030492621
-64.627831 -51.566666 -20.762552 0.48259667 -0.77246356 -0.41279599
-27.846533 -62.267574 51.39465 0.49119654 -0.7583639 -0.42849767
-27.511307 -62.997849 53.699783 0.52838069 -0.5997442 -0.60093331
-55.617554 -40.472858 -31.917284 0.18699373 -0.83375412 -0.51950687
-53.175037 -41.065693 -30.06241 0.41744319 -0.67589408 -0.60737824
-35.033451 -34.67738 -13.992183 0.49002761 -0.82854891 -0.27088702
-25.710121 -73.092247 75.634758 0.48783398 -0.70615858 -0.51318419
-26.253628 -62.509571 54.25182 0.55084938 -0.47343376 -0.68733221
-25.08559 -63.683922 55.109436 0.54735541 -0.28418815 -0.78717166
-24.169897 -64.669373 60.415016 0.36677894 -0.84067589 -0.39841852
-22.803982 -64.924919 62.769218 0.44503364 -0.83038175 -0.33527783
-53.806103 -38.554295 -32.988499 0.50375879 -0.77586967 -0.37980697
-53.48568 -39.697533 -30.957769 0.77131951 -0.48680499 -0.40998426
18.445761 -24.373337 34.842529 0.15548487 -0.95437777 -0.25492677
-27.232691 -60.813679 49.579277 0.50233978 -0.75580072 -0.42002386
-25.022982 -61.943153 55.054279 0.5754025 -0.63096875 -0.52037519
26.240017 -10.21287 17.61293 0.57880557 -0.80091238 -0.15337358
27.284271 -9.6756773 18.748564 0.51588613 -0.76068258 -0.39398432
-20.131519 -69.391907 76.737503 0.48226383 -0.74361271 -0.46310011
29.98731 -14.6698 32.188461 0.48196 -0.76814604 -0.42150465
17.290852 -32.718861 50.675961 0.58145851 -0.74839127 -0.31908706
11.87786 1.3956203 -27.320515 0.24977113 -0.94851971 -0.1947428
23.758698 -2.4201076 -0.98322803 0.56948096 -0.73130685 -0.37534204
18.469645 -33.393181 53.581646 0.52677238 -0.75100845 -0.39811721
12.667998 -1.6161153 -17.189823 0.48584113 -0.80383259 -0.34323677
10.468124 -5.9448404 -44.912571 -0.18088084 -0.852736 0.49002391
16.671526 -6.1937885 -54.905685 0.21518664 -0.96666628 -0.13874806
15.197709 -6.8794632 -53.017876 0.2762706 -0.96065515 -0.028567856
7.1198335 -47.972408 69.309402 -0.53755504 0.75838894 0.36862022
-14.776015 -66.157158 78.471497 0.47916675 -0.87769556 -0.0070532896
-18.090061 -60.367695 60.251991 0.46907791 -0.86373496 -0.18419483
12.721309 1.1236792 -23.94282 0.37182537 -0.86839825 -0.32807061
-16.38106 -62.609226 67.289505 0.46300912 -0.80752945 -0.3654021
22.838606 -8.9367085 11.294907 0.57071424 -0.73461115 -0.3669219
-48.753929 -27.923277 -48.347675 0.37738767 -0.6086309 -0.69795913
16.858995 -6.1619377 -51.463943 0.18852989 -0.96718293 -0.17033356
19.066803 -34.181099 55.570518 0.47980472 -0.77592814 -0.40953997
17.59691 -34.426842 54.490971 0.48204324 -0.78143334 -0.39622748
-15.242658 -58.948715 60.849358 0.50714576 -0.83011317 -0.23176599
-53.757622 -87.455795 60.513649 -0.57293981 -0.38143373 0.72542971
23.056873 -6.717927 6.777451 0.52623069 -0.76512575 -0.37103087
29.129284 -12.737769 29.270576 0.25550497 -0.90487415 -0.34047037
13.929899 0.63996404 -22.075531 0.39066374 -0.86841714 -0.30534151
-45.439198 -33.008247 -31.63583 0.62980628 -0.64980042 -0.42556253
17.235504 -0.26761374 -14.563465 0.4970929 -0.81679642 -0.29281762
-13.182752 -59.290913 63.840691 0.48072594 -0.77601171 -0.40829948
-12.476952 -59.629124 65.811577 0.49540377 -0.78408653 -0.37387615
-43.876461 -33.335026 -29.769398 0.55036551 -0.64925712 -0.52494079
5.4950805 -9.1755161 -53.255447 0.20044865 -0.96641427 0.16082203
4.0002613 -8.6716719 -51.74704 0.14305042 -0.92764384 0.34498328
-72.769653 -82.990547 34.188278 0.33320686 -0.86203331 -0.3819316
-16.827814 -53.556904 49.29464 0.51415974 -0.85173458 0.10093517
20.262573 -4.2416353 -1.7818872 0.48507568 -0.78543103 -0.38444722
-10.868529 -58.570305 65.752533 0.51017374 -0.76968658 -0.38380384
-33.673328 -33.930538 -14.298625 0.55135947 -0.79173666 -0.26297495
-38.422958 -36.28561 -15.67165 0.53900671 -0.78145576 -0.3143228
-9.2085543 -58.915688 68.410172 0.50522035 -0.77766162 -0.37415877
-46.69577 -26.694899 -48.671432 0.22206053 -0.76201946 -0.608289
-14.568064 -52.363567 49.093327 0.46082619 -0.88747978 -0.0043317489
-80.833725 -68.46418 -5.3374157 0.2969681 -0.88851386 -0.3497903
-46.490273 -27.312672 -47.822514 0.4976778 -0.82667643 -0.2625317
-6.6012421 -57.565063 69.412094 0.52179092 -0.78083909 -0.34354711
-46.362339 -25.348093 -50.473312 0.17188612 -0.85453218 -0.49013245
-38.048035 -95.270386 69.932381 -0.48037195 0.034426555 0.87638897
-44.937252 -26.438286 -48.814655 0.47709826 -0.86532384 -0.15359718
-31.362492 -31.75202 -15.575872 0.59063667 -0.79481643 -0.13933836
-40.350697 -30.56625 -57.319546 0.46671346 -0.88433713 0.011242213
-43.97279 -25.193947 -46.787437 0.59560055 -0.79973036 -0.075441524
-12.475804 -50.81958 48.041122 0.5344817 -0.82375503 -0.18909489
-6.870059 -54.207912 62.490536 0.50200695 -0.77147549 -0.39091516
-69.785881 -68.82959 8.9436731 0.44577983 -0.81622177 -0.3675082
-68.792404 -70.112221 12.305895 0.45014706 -0.80546474 -0.38547924
-62.033043 -85.739532 53.559746 0.6442225 -0.38406089 -0.66141868
-5.0221667 -54.364807 64.403664 0.51710087 -0.75674725 -0.39992523
-42.731926 -24.900146 -50.722965 0.35228044 -0.91811842 -0.18154092
-7.5470562 -50.898701 54.757088 0.50198239 -0.74437332 -0.44036585
18.426313 -6.3000875 -51.386311 0.18303169 -0.94910848 -0.25630563
-34.621426 -30.116619 -23.750477 0.54717523 -0.81302607 -0.19896661
-5.8440247 -52.991661 58.433514 0.5655902 -0.73514754 -0.37371889
-1.65011 -54.906975 70.36174 0.50964153 -0.79056764 -0.33951181
-36.577724 -28.951601 -58.451878 0.51892674 -0.84218967 0.14639588
-41.779549 -23.777298 -48.571117 0.62728715 -0.76690727 0.1355141
-5.4976707 -52.748543 60.958843 0.56026715 -0.81098336 -0.16854298
-36.651344 -28.602455 -56.638897 0.56320059 -0.60919219 0.55829197
-39.821892 -22.008219 -47.617928 0.57120919 -0.81639606 0.084955595
-33.539871 -28.607292 -24.789976 0.59870625 -0.79987305 -0.041881379
-31.93438 -31.076027 -17.791864 0.5104503 -0.75679719 -0.40828723
-31.316765 -31.457842 -17.060099 0.51198262 -0.78870016 -0.340332
16.40439 -30.284643 43.464535 0.17125474 -0.80244702 -0.57162094
0.27091262 -53.077873 69.184357 0.51048958 -0.7783221 -0.36553386
19.026365 -2.8147535 -6.1654387 0.47581023 -0.77556354 -0.41485634
-40.257259 -22.629971 -45.783615 0.50363618 -0.7860198 -0.35850164
-32.499287 -28.927885 -23.522194 0.46957955 -0.78807986 -0.3980267
-12.240042 -15.919725 -24.268084 0.42358679 -0.81847709 -0.38816169
-3.4897311 -52.207165 62.746468 0.49997598 -0.76483488 -0.40626547
17.652916 -31.109793 44.261597 0.51081014 -0.76319093 -0.39574307
-8.0404892 -48.034618 47.756104 0.5597173 -0.79850835 -0.22158764
-3.1095991 -50.813061 58.23452 0.5424335 -0.82114345 -0.17745209
20.507113 -21.5037 30.433929 0.51419944 -0.84311879 -0.15731996
-32.150291 -28.185093 -27.604717 0.63337672 -0.77355707 -0.021057522
-3.7053785 -50.739876 57.282555 0.22525501 -0.67818099 -0.69952172
-1.0275831 -50.483551 62.465919 0.49416834 -0.77122253 -0.40126491
-34.442413 -27.102905 -58.780582 0.58880001 -0.79121786 0.16519336
-34.841934 -26.854599 -56.594475 0.44954363 -0.65057778 0.61209404
-33.112419 -25.536087 -32.241959 0.52293181 -0.72252339 -0.45221934
-31.998077 -27.2908 -29.795115 0.4847672 -0.57809484 -0.65635902
-30.246578 -27.691301 -23.54274 0.37408668 -0.87420106 -0.30956697
-30.782663 -28.313835 -22.432552 0.48703077 -0.80298322 -0.34353909
-29.043873 -29.538082 -17.531477 0.5218327 -0.74058056 -0.42335689
-38.31736 -21.62991 -49.149055 0.52008516 -0.80248982 0.29244077
-37.465652 -20.802473 -46.669899 0.53215086 -0.81970948 -0.21187688
-3.6062093 -49.054146 56.36935 0.48165992 -0.58334827 -0.65399426
-37.567272 -20.755737 -48.409767 0.57181722 -0.81004792 0.12979783
-32.414352 -24.575279 -32.347965 0.69065046 -0.55318099 -0.46582484
-29.438492 -28.523891 -19.838547 0.50986463 -0.79003638 -0.34041238
-28.246204 -28.194445 -18.516193 0.45758694 -0.77783084 -0.43080565
-1.5841166 -49.904594 57.44207 0.43555084 -0.80890965 -0.39491841
-1.4938309 -49.874039 60.46785 0.54165852 -0.81602067 -0.2017829
22.106483 -3.8459983 -0.71185124 0.46837774 -0.77261895 -0.4285816
6.5355663 -56.6077 79.124527 0.19063336 0.031281207 0.98116279
3.0655916 -53.442501 74.925819 0.55896914 -0.75866526 -0.33463493
-34.441677 -18.545038 -46.69593 0.56045496 -0.79778892 -0.22231288
-31.270615 -24.933039 -59.556362 0.54851884 -0.83470947 -0.048858706
-25.761478 -27.850618 -17.48851 0.5044713 -0.81148833 -0.29494998
28.650356 -8.7381353 18.584171 0.52896559 -0.77416176 -0.347662
-34.245907 -18.411034 -49.165062 0.5418452 -0.82155401 0.17734933
30.251055 -11.838712 27.210188 0.47039562 -0.81882346 -0.32902309
-32.675602 -17.936588 -45.829807 0.51206237 -0.76851654 -0.38363317
33.077492 -15.856002 38.791672 0.47147414 -0.78594005 -0.40001294
-31.770525 -16.676779 -46.993279 0.54794377 -0.83361036 -0.06965176
2.964937 -46.111351 59.193111 0.30406585 -0.8721323 -0.38331342
3.3830984 -46.394203 59.876827 0.4908337 -0.80680645 -0.32885498
-28.232063 -20.780163 -34.031719 0.46975449 -0.76365602 -0.4428997
0.34850013 -42.170086 47.773384 0.55092692 -0.73961502 -0.38658643
-22.701521 -23.030027 -22.292141 0.48373443 -0.77544296 -0.40581924
7.4815516 -49.006058 71.276924 0.52813268 -0.78684682 -0.31929281
-22.302595 -23.13942 -20.842337 0.53660238 -0.77168959 -0.34139889
-22.479515 -21.440844 -24.273121 0.56450695 -0.80450892 -0.18465471
0.061389402 -41.578369 46.16082 0.56967127 -0.74792212 -0.34071571
-20.832067 -20.582726 -23.415733 0.57953185 -0.76206577 -0.28878802
-21.552635 -22.211464 -22.264593 0.60652137 -0.69602025 -0.38430136
-20.776777 -22.983353 -19.043047 0.57620621 -0.71056587 -0.40383482
1.4767318 -40.770779 47.369621 0.67577118 -0.6256814 -0.38968712
4.0757041 -41.312366 51.233109 0.55780679 -0.76408786 -0.32406998
9.6592531 -46.419304 68.748962 0.50730217 -0.77920228 -0.36808729
-25.79978 -21.470549 -60.789402 0.4754979 -0.87955314 0.016971102
-21.347267 -21.023674 -26.92594 0.38911644 -0.91108525 0.13605905
1.8457236 -39.048389 46.647861 0.87245613 -0.47029281 -0.13283473
-29.880934 -16.203239 -45.801868 0.51714855 -0.78313792 -0.34532943
-20.890438 -20.560755 -25.132607 0.40237409 -0.91000956 0.099888496
1.6350003 -40.087589 45.285744 0.68282974 -0.70397598 -0.19534935
11.467723 -47.017876 72.594368 0.52831233 -0.78575188 -0.32168302
-19.733606 -20.687191 -25.704657 -0.043564618 -0.99044943 0.1308133
-22.679039 -18.437376 -31.685104 0.56601399 -0.73817199 -0.36705631
2.6899841 -39.092133 45.403915 0.46974379 -0.87534922 -0.1144747
-20.653786 -18.896055 -61.009258 0.53335094 -0.84588993 0.0026614701
-21.907452 -16.842243 -32.270813 0.77423328 -0.59528947 -0.21492608
2.9205239 -38.35704 43.606457 0.40367064 -0.81152397 -0.42246783
4.2935162 -38.994774 45.489754 0.4314957 -0.78972024 -0.43606591
-22.668949 -19.898087 -59.277157 0.45961171 -0.87644452 0.14353427
-26.258833 -14.16976 -44.590103 0.53703415 -0.74728554 -0.3913548
10.630188 -44.771477 66.589989 0.4884724 -0.79415739 -0.36153674
-26.466339 -13.24052 -46.55957 0.53219223 -0.81718558 -0.22131215
5.0644703 -38.089485 45.825989 0.56627679 -0.73035353 -0.3819873
14.060699 -42.962029 67.420563 0.49335179 -0.79456645 -0.35393247
-67.51873 -84.486107 44.675945 0.37772965 -0.84700733 -0.37403056
12.031306 -41.193314 60.796619 0.51000744 -0.79858047 -0.31962758
15.789147 -28.089893 39.60199 0.37713155 -0.80366945 -0.46031204
15.501105 -42.887478 69.466324 0.53190386 -0.78903866 -0.3074024
-14.386276 -18.241926 -20.934671 0.49195185 -0.8389613 -0.23265308
6.5928822 -34.791718 40.986759 0.54560852 -0.73577744 -0.40117687
-21.237658 -10.402254 -45.438221 0.5161891 -0.83380777 -0.1957384
17.017267 -29.128664 42.143448 0.26118878 -0.76787764 -0.58493108
25.175465 -7.8531036 12.313199 0.52099413 -0.77661252 -0.35417247
-12.945362 -16.529737 -21.622173 0.55997634 -0.80821532 -0.1822488
35.645401 -15.629042 40.633186 0.51133937 -0.76597595 -0.38963187
8.4508677 -33.990459 42.71339 0.53303194 -0.74199724 -0.40659207
19.038862 -39.289612 66.687218 0.51974964 -0.79439598 -0.31431723
-14.935537 -15.72814 -62.346073 0.43492588 -0.89741451 -0.074072987
-11.5632 -15.558761 -20.203123 0.54192275 -0.84017944 -0.02044908
-11.742137 -16.644999 -19.05006 0.61436379 -0.77897167 -0.12554014
21.282438 -2.546252 -4.2570534 0.4770999 -0.79068196 -0.38366359
-19.098745 -9.2134514 -44.63763 0.48562628 -0.8561849 -0.17639357
-18.297573 -13.337995 -35.443783 0.52232438 -0.77392852 -0.35806695
22.984821 -2.0811961 -2.8177042 0.49728206 -0.77352089 -0.39290723
-30.79347 -94.055252 74.722244 -0.54564857 0.33298913 0.76901615
24.718468 -7.0210638 9.7469273 0.51047897 -0.78789282 -0.34443605
-14.136691 -12.804843 -30.91259 0.51559824 -0.76762605 -0.38066894
17.298294 -37.431225 60.166988 0.51524788 -0.76534081 -0.38571107
-9.9133253 -12.337211 -26.461655 0.56753099 -0.64331532 -0.51386189
-15.465529 -7.2983751 -44.806969 0.46678442 -0.86804563 -0.16914226
-10.505156 -11.643942 -28.682121 0.50479013 -0.79322571 -0.3405582
9.5832405 -27.804836 31.924198 0.28417626 -0.76704592 -0.57522553
9.3686056 -29.644346 34.0439 0.31605235 -0.73215538 -0.60337341
32.550236 -10.717657 27.684748 0.51176846 -0.75979352 -0.40100724
-8.7288837 -8.1282711 -33.342327 0.49349371 -0.77865809 -0.38749906
-10.284062 -10.695648 -30.584545 0.51239914 -0.76274639 -0.39454409
-8.5267172 -9.3769789 -30.189148 0.56757909 -0.74532485 -0.34977838
-31.474794 -27.447897 -25.337807 0.51029277 -0.85572612 -0.085639544
10.837127 -26.571159 33.028152 0.78083819 -0.53523511 0.3222034
10.731398 -28.089722 32.871304 0.57751936 -0.69843131 -0.42268798
19.951475 -5.5524001 0.37499267 0.45541784 -0.80582821 -0.37846446
20.553226 -5.5191865 -53.059872 0.18265985 -0.96682453 -0.17856587
19.671043 -23.297796 33.940174 0.46404037 -0.80120254 -0.37781093
20.868732 -34.910824 59.661747 0.51719546 -0.77103758 -0.37149677
19.38419 -36.2696 60.629692 0.51696134 -0.76940596 -0.37518719
-9.5153189 -13.2608 -62.225571 0.30363122 -0.75553918 -0.58048987
-9.5366077 -13.428924 -57.594242 0.34185648 -0.93740505 0.066377319
-13.083079 -6.2192073 -45.146191 0.41699967 -0.89731395 -0.14470309
-12.470496 -6.4369307 -42.034145 0.49441284 -0.82185584 -0.28303501
-9.1928396 -9.1636906 -31.673782 0.5175634 -0.76139265 -0.39039636
-8.3777199 -10.291557 -28.247849 0.54986179 -0.74155921 -0.38437209
11.162773 -27.040901 31.458649 0.68994081 -0.72256136 0.043438464
12.736829 -26.038677 31.418413 0.63011563 -0.77606094 -0.026148111
-7.016161 -8.0396872 -31.204084 0.50533032 -0.78970093 -0.34787014
27.650242 -6.9046807 13.772936 0.46043289 -0.81761187 -0.34570551
-4.9785509 -11.035752 -23.0763 0.56684619 -0.64748061 -0.50936645
37.422607 -13.837358 40.852421 0.45547184 -0.77755916 -0.43352863
20.822153 -33.731647 56.904827 0.52313864 -0.77154762 -0.36199483
-4.6282587 -9.4485979 -24.649265 0.48521569 -0.77823466 -0.39864331
22.155579 -33.472607 59.330753 0.54418063 -0.74421412 -0.38731474
23.475006 -34.511311 62.813164 0.52006793 -0.79114985 -0.32188702
-5.5806727 -12.384679 -58.481144 0.31003636 -0.95071203 0.0049091862
-10.206555 -5.0554843 -41.82066 0.47708693 -0.83568424 -0.27206579
6.2960429 -8.7654858 -54.722759 0.22961684 -0.97310507 0.018506657
-3.4965549 -11.77494 -59.215073 0.29842439 -0.95006573 -0.091202386
28.20512 -6.7839193 14.749188 0.39749902 -0.80662227 -0.43744141
23.700933 -33.675732 60.842033 0.51970249 -0.76582068 -0.37871897
-3.2668631 -11.331527 -57.532829 0.31626242 -0.94270885 0.10619842
6.7861071 -8.6217127 -52.200352 0.10637868 -0.92162603 0.37321463
-3.2669795 -11.175112 -61.175125 0.31564066 -0.86565757 -0.38859755
-2.6145103 -11.124339 -54.869892 0.32870498 -0.93358266 0.14274555
22.426447 -5.5539727 -51.992821 0.14631458 -0.97467482 -0.1691182
-2.0656626 -9.0557261 -22.461327 0.50582898 -0.75322306 -0.42046651
10.109084 -19.130796 14.80759 0.47116092 -0.78362852 -0.40488726
-0.88283938 -9.599968 -20.206339 0.5914982 -0.70823449 -0.38540101
-0.44689381 -10.179139 -18.303495 0.67582917 -0.67044127 -0.30620816
11.49841 -20.273821 18.286903 0.58517826 -0.69074845 -0.42477417
25.216946 -30.214853 55.660774 0.5260219 -0.77104926 -0.35886502
-0.91534215 -10.417753 -55.675179 0.30194408 -0.94983953 0.081452534
-4.6085501 -6.4716635 -29.354837 0.43416893 -0.84625638 -0.3087838
11.546872 -17.806322 15.133484 0.66692042 -0.72090298 -0.18845697
13.231296 -19.490341 19.614853 0.55195326 -0.73279357 -0.39794636
30.348619 -6.1527419 15.533104 0.48446587 -0.79407901 -0.36705771
-0.16577667 -10.553863 -57.119774 0.22994897 -0.96562696 0.12119402
0.86776704 -8.777051 -18.271568 0.64828742 -0.70595223 -0.28522772
24.493433 -5.2839723 -51.006561 0.13602646 -0.98885334 -0.06054626
11.420021 -18.835978 15.773016 0.5607512 -0.71089429 -0.42448494
15.140647 -17.681593 18.797916 0.51041514 -0.72718871 -0.45899126
22.438889 -26.196192 44.300385 0.55146503 -0.72567302 -0.41144276
23.43305 -26.551834 46.134708 0.53618431 -0.74513292 -0.39658955
-1.1677008 -10.983382 -58.156147 0.30570465 -0.95173454 -0.027313199
1.1280017 -9.9367571 -56.237133 0.19606955 -0.96513224 0.17342559
0.89514399 -7.8969274 -20.673105 0.58957011 -0.74059594 -0.32237342
-3.5309746 -5.8754201 -30.467276 0.52108991 -0.80297601 -0.28930053
-38.917114 -29.79628 -56.266296 0.55441201 -0.76869011 0.31897154
-41.180149 -34.888477 -24.375961 0.54268855 -0.78205925 -0.30638626
-55.251949 -70.827156 33.660919 0.47371921 -0.81318969 -0.33810171
-51.762615 -69.340179 30.55151 0.65824682 -0.45748812 -0.59784257
-51.659466 -68.267151 31.451405 0.61859137 -0.3471128 -0.70488125
-69.232903 -59.854015 -9.2959518 0.44402736 -0.79710788 -0.40921712
-10.805182 -49.789158 48.180595 0.49124092 -0.84417021 -0.21461393
23.778204 -20.978659 36.250328 0.53533036 -0.75085646 -0.38682815
10.308973 -12.021094 -0.88170707 0.21860422 -0.95273894 -0.21095182
11.596917 -11.05662 -0.34465292 0.61380249 -0.75202882 -0.24020632
21.712761 -8.7140808 9.5757313 0.58998013 -0.7179094 -0.369499
-24.119091 -63.68996 55.665997 0.50697303 -0.80745077 -0.30166498
-6.8577061 -58.927784 71.966476 0.52929455 -0.77860302 -0.33708248
-6.9448199 -59.923374 74.453239 0.51173317 -0.7866863 -0.34533149
18.327618 -30.062618 43.112999 0.38302895 -0.75455904 -0.53285038
19.668983 -32.476002 53.420315 0.49250504 -0.70832849 -0.50567728
20.975477 -23.13076 34.678421 0.717709 -0.62092686 -0.31518847
18.355194 -29.944756 45.91473 0.52068901 -0.77383935 -0.36063233
17.735025 -27.503065 39.50452 0.11694249 -0.90245211 -0.41461369
17.473141 -27.919739 40.635895 0.17850994 -0.84991986 -0.49575248
18.306236 -29.405869 44.224648 0.69123441 -0.68954217 -0.21616343
-80.070175 -66.430374 -10.911674 0.62886542 -0.74551934 -0.22074676
9.2452059 -8.4286537 -53.506294 0.16099688 -0.98418921 0.073835291
-77.466003 -61.543636 -18.599234 0.69045186 -0.70106614 -0.17827621
-76.301956 -59.328648 -21.938717 0.69604081 -0.68589324 -0.21231474
-15.126243 -58.980843 59.07185 0.44911873 -0.89127332 0.062643878
-75.79982 -68.95369 -22.600142 -0.92299366 -0.037488498 -0.38298476
-73.544174 -55.473469 -25.972328 0.85842365 -0.41975281 -0.29481587
18.990801 -28.024374 40.869698 0.34719157 -0.86949116 -0.35134459
-72.160156 -53.724148 -29.889402 0.79628068 -0.59564215 0.10558155
8.24298 -8.152091 -51.67329 0.14342332 -0.96294415 0.22840405
-69.570183 -50.237606 -32.333332 0.61387718 -0.7569266 -0.22409113
-67.947556 -48.160885 -34.371311 0.67761773 -0.71766108 -0.1606137
18.679871 -26.911373 38.903629 0.10612327 -0.78685719 -0.6079421
19.463633 -27.49514 42.071762 0.75214332 -0.64033848 -0.15571447
-61.538612 -57.063324 -5.2830338 0.47922039 -0.73456913 -0.48037079
18.759909 -29.112654 42.401176 0.56990451 -0.72023416 -0.39556488
20.7792 -27.239607 44.011742 0.56989074 -0.72988397 -0.37748367
11.974069 -7.7419181 -52.357254 0.22348101 -0.9741357 0.033406328
10.329844 -7.5133858 -50.172443 0.12768589 -0.95869458 0.25416699
8.5190878 -7.2565494 -47.90424 0.012674286 -0.92675233 0.37545896
19.839382 -27.455463 39.810249 0.58373243 -0.78740466 -0.19811717
-21.123503 -65.744576 67.091217 0.42490539 -0.87624645 -0.22726098
-13.805057 -65.79995 77.380844 0.47531649 -0.8187505 -0.32205865
20.229263 -26.041071 40.22554 0.79361272 -0.58135551 -0.17945634
-1.8452153 -55.638657 72.390305 0.50862956 -0.78549922 -0.3525435
-12.72645 -57.272835 61.164223 0.52562386 -0.848571 -0.060388427
14.368864 -30.646397 42.910271 0.2713806 -0.85758775 -0.43691632
22.215576 -28.385618 47.997391 0.53208852 -0.76205194 -0.36899692
11.580127 -6.2954144 -47.23568 0.10143693 -0.93760079 0.33258891
8.1124611 -8.3683796 -9.5553322 0.46113718 -0.87172312 -0.16568446
21.359335 -25.175097 40.889912 0.60398543 -0.69241005 -0.39467701
20.851053 -26.344425 41.856628 0.6084637 -0.71448809 -0.34536755
12.099166 -7.3855886 -50.332371 0.07410074 -0.96331286 0.25794828
-71.370636 -82.772797 36.07402 0.60685492 -0.65114594 -0.45578066
-80.853966 -68.306511 -7.639401 0.41138083 -0.88939708 -0.19934537
-79.590897 -68.039047 -6.2261705 0.37247315 -0.87849993 -0.29916832
-79.893341 -67.358231 -8.3310757 0.53620273 -0.75459611 -0.3782478
-78.70356 -69.065544 -3.2344542 0.44639239 -0.76437789 -0.465253
-67.249123 -83.807137 42.799435 0.51896286 -0.75439388 -0.40195453
-78.541733 -68.16375 -5.0941253 0.43880686 -0.82749617 -0.35028353
-66.064087 -82.570694 42.361137 0.49617979 -0.75593609 -0.4270435
-79.306175 -66.257713 -9.1951799 0.40997761 -0.8310883 -0.37578005
-77.809837 -66.70507 -7.2774048 0.49429363 -0.78503513 -0.37335455
-64.968651 -83.320564 45.378128 0.52141947 -0.77043158 -0.36681989
-79.089745 -65.347115 -12.2655 0.5603416 -0.7452535 -0.36140624
-75.986549 -69.69191 2.2447073 0.43701661 -0.82405794 -0.36047888
-75.934395 -70.248154 3.828419 0.4773345 -0.78213143 -0.40052742
-67.179283 -76.967545 29.439888 0.41461673 -0.80216241 -0.4296841
-67.239708 -78.212433 31.043478 0.47698393 -0.8041603 -0.35470074
-66.681976 -79.156578 34.407154 0.54781967 -0.77128232 -0.32406357
-66.956512 -80.167274 36.371811 0.51638734 -0.76016319 -0.39432979
-66.918175 -81.107803 37.797489 0.49492088 -0.78039384 -0.38215017
-65.533859 -81.250443 40.321377 0.48974529 -0.79250187 -0.36344245
-64.147675 -81.179573 41.788162 0.47471201 -0.77260739 -0.42157599
-78.476173 -65.31662 -10.805186 0.42120469 -0.8472349 -0.323697
-77.212967 -65.708168 -9.5595999 0.51506281 -0.79342127 -0.32433474
-76.299728 -66.294838 -5.8761101 0.54230571 -0.73610711 -0.40503204
-63.40797 -84.87661 50.031982 0.48010328 -0.7906515 -0.37996191
-73.467819 -69.681068 5.5631466 0.49224019 -0.77916533 -0.38807341
-64.874306 -77.77552 34.604649 0.47575375 -0.81569278 -0.32909513
-65.38504 -78.948959 36.100937 0.4551146 -0.79827362 -0.39449954
-64.575989 -82.453903 43.65398 0.51460892 -0.78566325 -0.34338182
-61.291481 -83.653 51.246452 0.56688309 -0.70208716 -0.43094915
-60.029137 -84.071373 52.590736 0.4918409 -0.7500062 -0.44224799
-77.181808 -64.570526 -11.088279 0.38718823 -0.868873 -0.30845597
-76.071297 -64.882225 -8.369791 0.47607568 -0.80083382 -0.36334163
-73.575607 -68.894066 4.2942262 0.49299765 -0.77891827 -0.3876076
-65.95063 -76.595123 29.12435 0.42084846 -0.75694185 -0.49992567
-78.053543 -62.14542 -17.111244 0.68633938 -0.70684713 0.17118834
-76.676064 -65.291847 -7.2441654 0.54795516 -0.77077544 -0.32503903
26.661016 -21.300329 40.524067 0.40385655 -0.86536419 -0.29672334
25.605839 -21.542025 40.747276 0.22835116 -0.97324109 0.025640234
-73.590149 -66.387558 -1.2658026 0.44376504 -0.73890328 -0.50704485
-73.476166 -67.625954 0.3286531 0.50558597 -0.7742539 -0.38067538
-73.56752 -68.589539 3.2428496 0.46589816 -0.83304697 -0.29828119
-72.266037 -69.398552 6.7849183 0.46939075 -0.80494577 -0.36295277
-65.881386 -75.489647 27.966431 0.52197254 -0.7646324 -0.3779971
-65.498924 -76.885918 30.342422 0.43164974 -0.82109469 -0.37347293
-64.218445 -76.94268 32.41993 0.49991006 -0.82695621 -0.25735831
-63.216625 -78.291367 36.47604 0.46308425 -0.80326325 -0.37459478
