# .PCD v0.7 - Point Cloud Data file format
VERSION 0.7
FIELDS x y z normal_x normal_y normal_z
SIZE 4 4 4 4 4 4
TYPE F F F F F F
COUNT 1 1 1 1 1 1
WIDTH 715
HEIGHT 1
VIEWPOINT 0 0 0 1 0 0 0
POINTS 715
DATA ascii
-48.788342 -4.4789681 -10.097122 -0.034890171 -0.4337804 -0.90034288
-56.130505 -17.079372 -1.6500775 0.033163279 -0.50211149 -0.8641668
-50.783062 -35.836899 8.1860981 -0.072854839 -0.55222631 -0.83050483
-51.578857 -34.6562 7.5096908 -0.061769303 -0.56449348 -0.82312316
-51.862465 -26.990196 2.0691278 -0.12506463 -0.55155313 -0.82471091
-51.876122 -18.227238 -3.2625463 0.018942166 -0.54177934 -0.8403073
-50.528938 -17.610159 -3.7710099 -0.19583696 -0.63900691 -0.74385345
-49.26181 -7.0862818 -8.7279634 -0.016101267 -0.4570787 -0.8892805
-6.0455394 21.387978 -11.575408 0.28045774 -0.34718159 -0.89487904
-32.051033 6.75564 -13.129232 -0.022103686 0.0067365598 -0.99973303
-47.935379 -18.99547 -8.2466211 -0.6015923 0.40934905 -0.68594468
-30.641117 -6.5727282 -25.115982 -0.83544189 -0.31230342 -0.45222038
-30.77573 8.1306925 -13.246017 -0.53971124 0.4993242 -0.67778111
-45.583862 4.3102756 -13.576635 -0.093574472 -0.26802981 -0.95885545
-18.370836 -20.678902 -35.92194 -0.71376741 -0.25753689 -0.65131474
-26.141804 -46.307545 19.665678 0.12861806 -0.6752035 -0.72633165
-41.666267 -21.636187 -14.118153 -0.4554987 0.51020133 -0.72953105
-27.761497 -44.397202 -6.7461395 -0.13347255 -0.98393464 0.11856548
-46.733727 -40.311707 12.061754 -0.055929277 -0.71148616 -0.70047075
-24.195845 -26.374613 -31.337654 -0.71556771 -0.57113391 -0.40220496
-20.355474 -35.330215 -33.092567 -0.59699017 -0.25340885 -0.7611745
-23.816826 -27.406034 -30.827616 -0.72942173 -0.41887471 -0.54082155
-34.324623 -28.744139 -22.104982 -0.65597886 -0.6908223 -0.30406609
-24.809116 -45.717751 -6.7905631 -0.61561137 -0.74204403 -0.26531738
-41.051918 -11.620648 -17.26634 -0.81612486 -0.51356995 -0.26492673
-40.391186 -33.600849 -9.3490639 -0.75352871 0.12554449 -0.64531618
-42.76516 -11.702924 -10.453741 -0.85927689 -0.40427065 -0.31338248
-38.102375 -36.471607 0.32921916 -0.85759693 -0.34263352 -0.3835749
-47.38213 -19.565739 -6.4427681 -0.58860368 -0.80281186 0.095073007
-47.632771 -12.72591 -6.1171913 0.032308944 -0.49698776 -0.86715585
-24.469557 -52.274143 25.279961 0.18388093 -0.79575658 -0.57702625
-32.89888 -2.0973775 -22.442951 -0.051805809 0.65700173 -0.75210696
-51.531033 -4.6115375 -9.7613382 -0.10045379 -0.36908183 -0.92395222
-49.64576 -0.4505817 -11.403502 -0.11527184 -0.27748516 -0.95378953
-47.423134 1.509429 -12.586255 -0.051064935 -0.32177141 -0.94543934
-46.25169 4.8383532 -13.345215 -0.19319424 -0.23683061 -0.95214874
-38.570847 13.518213 -15.7353 -0.039579354 -0.15798052 -0.98664868
-37.027534 15.022763 -16.038763 -0.021584641 -0.17634739 -0.98409134
-0.0042207758 -39.860458 -42.237652 -0.26211649 -0.24769796 -0.93270612
-3.6574566 -41.775154 -40.168438 -0.31875739 -0.5086078 -0.79981983
-7.2763433 -41.538502 -38.463745 -0.40345344 -0.51769924 -0.75446194
-5.8848386 -40.481075 -39.871349 -0.3837525 -0.44604111 -0.80856752
-3.6175716 -35.519558 -42.076511 -0.22945583 -0.11721676 -0.9662351
-2.071188 -37.342186 -42.258091 -0.22659387 -0.13313001 -0.96484798
-6.0371661 -43.843681 -37.243282 -0.34352595 -0.68925953 -0.63789594
-6.1179891 -37.512714 -40.9907 -0.3464494 -0.23152353 -0.9090488
-9.3635483 -40.353821 -37.925262 -0.48481676 -0.49079615 -0.72392815
-9.3330173 -41.986797 -36.869774 -0.49753726 -0.49208272 -0.71436071
-7.5075078 -36.400787 -40.622528 -0.41151887 -0.19217786 -0.89090955
-6.4032969 -33.132683 -41.434036 -0.2363067 -0.00021115753 -0.9716785
-9.5253153 -38.612045 -38.890991 -0.46150476 -0.28625438 -0.83968556
-7.3835196 -34.201866 -40.760735 -0.37945071 -0.096551776 -0.92016023
-4.5472083 -30.400053 -41.486248 -0.28946856 0.062035479 -0.95517516
-9.5404472 -32.264641 -39.95158 -0.44794565 -0.067365743 -0.89151925
-7.2720723 -26.838305 -40.234879 -0.43716088 0.065940298 -0.89696282
-15.738748 -45.447021 -27.473982 -0.59072173 -0.550237 -0.5901584
-12.183627 -33.844116 -38.937752 -0.5254966 -0.29245386 -0.79895186
-13.509967 -35.501823 -37.04686 -0.54500711 -0.22996117 -0.80627859
-55.145252 -12.084745 -4.243896 0.064187028 -0.43798366 -0.89668858
-11.076835 -28.844656 -39.741608 -0.51355827 -0.13576168 -0.84724653
-7.8691783 -24.798611 -39.810055 -0.42519301 0.096098058 -0.89998674
-16.803326 -36.922329 -35.120838 -0.58365566 -0.43772912 -0.6839146
-13.446224 -26.286722 -38.660683 -0.59340513 -0.13045181 -0.79426235
-3.4265065 -19.824862 -38.609928 -0.36787602 0.23809928 -0.89887488
-16.647957 -30.483763 -37.118813 -0.46262705 0.026445094 -0.88615853
-9.1733971 -21.541405 -39.014618 -0.47283316 0.094732404 -0.87604487
-17.918432 -31.499968 -34.998081 -0.64864379 -0.3663834 -0.66710156
-16.098648 -27.486458 -36.39769 -0.44615313 0.13602698 -0.88455862
-11.249137 -20.871361 -37.529331 -0.50132483 0.11255202 -0.85790759
-13.28639 -28.289955 -38.08416 -0.57211614 -0.086075269 -0.81564343
-9.7453861 -19.507582 -38.577858 -0.40180856 0.14152494 -0.90472126
-19.340384 -28.828299 -35.626038 -0.53532428 -0.096464776 -0.83912003
-22.387737 -39.847366 -27.643579 -0.65166819 -0.15770921 -0.7419275
-21.523335 -38.166359 -28.313366 -0.6623767 -0.23503664 -0.71134728
-21.797625 -32.086163 -31.725519 -0.5544731 0.063133933 -0.82980341
-19.584612 -32.772964 -33.276897 -0.57960874 -0.037152551 -0.81404757
-19.6632 -29.82267 -34.423241 -0.68380493 -0.48069131 -0.54895055
-12.240165 -17.725128 -36.621651 -0.57954872 0.062264167 -0.81255549
-21.365551 -29.011112 -32.674389 -0.71017098 -0.41459537 -0.56900615
-21.054468 -26.990269 -34.493443 -0.36789382 0.28665435 -0.88458097
-17.064629 -22.674757 -36.3652 -0.66604942 -0.20914543 -0.71598625
-23.958895 -32.322842 -30.47724 -0.54463929 0.13016978 -0.82850695
-17.33536 -24.265137 -35.489914 -0.61869991 -0.04247677 -0.78447819
-25.173584 -33.217457 -29.878767 -0.65738004 -0.21737413 -0.72152615
-24.930002 -37.507591 -25.069601 -0.67600173 -0.076629661 -0.73290491
-19.768856 -23.298313 -33.64872 -0.5222249 0.14283842 -0.84076059
-23.361906 -29.416088 -30.485676 -0.65880626 -0.083851375 -0.74762511
-25.343931 -29.924404 -28.9571 -0.57791567 0.1632861 -0.7995944
-21.414574 -21.039776 -32.290371 -0.60761935 0.039817389 -0.79322964
-19.789642 -20.255257 -33.85215 -0.72780883 -0.21760264 -0.65034103
-26.449625 -28.129629 -27.843493 -0.6160742 0.052161865 -0.78595906
-14.690416 -11.336995 -34.202145 -0.66235375 0.039939545 -0.74812591
-28.19507 -31.810814 -27.433874 -0.64072239 -0.083497666 -0.76321882
-20.894543 -17.842163 -34.207157 -0.73319089 -0.2608569 -0.62800074
-16.559971 -12.095525 -32.586903 -0.6006133 0.14418174 -0.78643197
-28.930298 -35.957466 -21.250587 -0.68093425 0.086329535 -0.72723848
-21.582819 -18.280176 -32.437191 -0.75490248 -0.22792338 -0.61495781
-21.959717 -15.15573 -33.100834 -0.10255206 0.48637718 -0.86770976
-27.556238 -27.038595 -26.858768 -0.6590566 -0.0077048889 -0.75205386
-22.522533 -16.105556 -32.925007 -0.75237751 -0.2387186 -0.61395568
-28.932219 -26.788023 -25.660088 -0.67179763 0.037640236 -0.73977768
-29.849426 -29.194424 -25.582275 -0.54159778 0.27626786 -0.79394448
-27.775982 -22.668125 -30.319908 -0.67227596 -0.21068926 -0.70968664
-52.615227 -4.2321382 -10.098451 0.12224519 -0.44079602 -0.88924408
-31.426193 -37.455799 -19.43663 -0.70766056 -0.013944166 -0.70641494
-16.744593 -9.0833321 -32.016838 -0.73294479 0.033115063 -0.67948157
-31.662209 -34.613861 -18.435459 -0.70539898 0.078648813 -0.70443356
-28.620523 -20.991827 -29.366459 -0.26847237 0.46604255 -0.84304619
-17.443901 -7.6879387 -31.192287 -0.75291908 -0.030184679 -0.65742052
-23.967676 -15.859243 -30.307045 -0.74889052 -0.13945335 -0.64785475
-24.315483 -14.557408 -31.012856 -0.80889279 -0.32779348 -0.48810241
-31.455656 -27.362095 -23.77376 -0.57335812 0.2672025 -0.77450848
-24.072762 -13.319019 -31.651682 -0.40669569 0.27058223 -0.87257314
-33.093708 -33.315956 -16.798849 -0.73479807 0.056742392 -0.67590833
-26.633734 -15.098508 -27.505215 -0.72252506 0.013164255 -0.69121939
-32.588673 -26.650391 -22.591927 -0.47953197 0.4233411 -0.7686556
-25.89587 -12.045803 -30.148436 -0.79317522 -0.3129907 -0.52240765
-30.57782 -24.759686 -24.163294 -0.71401507 -0.0049318587 -0.700113
-50.838203 -2.1619697 -10.852684 -0.17157865 -0.31023136 -0.93504936
-29.377941 -47.31041 6.6376767 -0.86736447 -0.30774707 -0.39111459
-30.379568 -23.007513 -24.787249 -0.78131366 -0.36041936 -0.50955558
-32.132126 -20.353727 -24.774179 -0.78080893 -0.540658 -0.31309161
-29.86117 -17.895752 -26.791918 -0.2398975 0.53649276 -0.80908889
-26.145824 -13.592352 -28.450686 -0.80704075 -0.29722682 -0.51023668
-20.277645 -5.7220697 -28.26223 -0.60047257 0.20965144 -0.7716729
-19.358564 -5.0829425 -28.766838 -0.81538922 -0.00642497 -0.57887739
-10.776895 2.4476097 -26.844084 -0.5960446 0.30344486 -0.7434057
-34.846401 -25.593353 -20.592487 -0.53677434 0.36545867 -0.7604692
-31.525415 -18.805973 -27.204552 -0.41526619 0.33453688 -0.84595454
-33.477024 -18.200315 -25.520985 -0.77844048 -0.4435606 -0.44416714
-25.955217 -11.271263 -30.156935 -0.32567024 0.3879703 -0.86221689
-31.337709 -16.570425 -25.389801 -0.22460651 0.57552171 -0.78633755
-28.270531 -14.620028 -25.897966 -0.63186705 0.17099345 -0.7559796
-36.735809 -26.644045 -20.371277 -0.56866407 0.27142322 -0.77649891
-34.978889 -30.03829 -15.269258 -0.77818841 -0.47536287 -0.41043037
-37.945988 -33.882595 -12.028846 -0.71788418 0.15557246 -0.67855698
-27.636517 -10.033921 -28.464254 -0.82641113 -0.24483043 -0.50705308
-20.411299 -3.3081055 -27.421644 -0.71312344 0.075203136 -0.69699323
-36.982136 -29.23527 -13.070237 -0.79889017 -0.33802095 -0.49751005
-33.849747 -16.934845 -25.313826 -0.32483244 0.49639532 -0.80503142
-29.311382 -12.689646 -24.630413 -0.70801824 0.017360993 -0.70598072
-28.788588 -8.4183035 -27.246899 -0.82351112 -0.23673092 -0.51554614
-23.342213 -4.2845035 -25.372494 -0.36934194 0.49833944 -0.78437513
-21.36442 -2.1066816 -26.446495 -0.74708831 0.036601275 -0.66371638
-38.327168 -25.041052 -18.619385 -0.45909196 0.47123852 -0.75310612
-38.951088 -32.281227 -10.515106 -0.73047227 0.19760768 -0.65372896
-34.495239 -21.096123 -20.054287 -0.74130166 -0.024071543 -0.67074019
-23.255911 -2.2415984 -24.854919 -0.64010793 0.22353885 -0.73504561
-38.139591 -23.510633 -17.415024 -0.50841129 0.39258066 -0.76641917
-31.279848 -11.777201 -23.847704 -0.72537905 0.12915166 -0.67612505
-35.953495 -14.724992 -22.903631 -0.30784985 0.52825242 -0.79131401
-36.433376 -15.600855 -22.701481 -0.79716432 -0.47726002 -0.36979973
-22.726692 -0.25596404 -24.802364 -0.78677553 0.0089168465 -0.61717486
-36.272747 -16.709589 -20.309507 -0.80543596 -0.50965261 -0.30253449
-25.02284 -2.8709514 -23.703049 -0.34227744 0.52223885 -0.78109711
-41.628105 -31.858805 -7.3595252 -0.74163944 0.20339017 -0.63922095
-25.176815 -1.2641523 -22.710447 -0.5256989 0.38186541 -0.76014435
-37.678211 -14.36745 -21.581236 -0.79649401 -0.48185226 -0.36526111
-41.74683 -27.108477 -6.1330204 -0.81149316 -0.0098230354 -0.58427948
-35.854279 -44.97683 16.599661 0.045783803 -0.63671356 -0.76974005
-20.745714 -16.560844 -33.924984 -0.058525424 0.49641326 -0.86611116
-12.550138 -14.829323 -36.532608 -0.44840047 0.16518985 -0.87843579
-33.129719 -8.4342804 -20.223343 -0.68374842 0.22290558 -0.694839
-37.351513 -42.611374 14.696627 0.079105757 -0.69809079 -0.71162593
-23.698229 0.91530806 -23.510244 -0.76072782 0.11346029 -0.63907748
-24.562389 3.2182631 -22.029148 -0.80599117 0.049378682 -0.58986431
-38.185883 -13.120374 -21.080498 -0.28676876 0.54980803 -0.784522
-23.458872 3.173871 -24.009434 -0.84524834 -0.054078281 -0.53163034
-39.308517 -13.228104 -18.745201 -0.78161031 -0.56787771 -0.25807017
-39.68029 -12.45605 -19.840157 -0.75117165 0.01514358 -0.65993321
-33.170692 -6.797019 -19.902157 -0.84406447 -0.20191704 -0.4967742
-40.798504 -43.471924 14.737283 0.12118732 -0.58516103 -0.80181056
-38.031555 -11.558648 -19.681835 -0.19608444 0.66855961 -0.7173416
-47.576035 2.7632813 -12.571287 -0.18543863 -0.22773239 -0.95590293
-42.142921 -44.275589 15.002156 0.07380639 -0.61799318 -0.78271139
-42.05584 -35.938931 7.7065868 -0.81919235 -0.016836427 -0.57327181
-42.740635 -36.820721 8.7914839 -0.41545448 -0.36226973 -0.8343609
-39.55035 -9.5110273 -17.271593 -0.22204222 0.64697945 -0.72946209
-26.188936 3.9081287 -19.96941 -0.78628129 0.12753734 -0.60456258
-44.494549 -36.654366 8.6236944 0.0054502846 -0.55916286 -0.82903993
-40.437737 -11.53187 -18.810442 -0.56364971 0.31062177 -0.76538438
-45.548367 -35.546856 7.9076171 -0.045692533 -0.54255074 -0.83877933
-44.677628 -33.716339 6.4969916 -0.0071173534 -0.5247013 -0.85125661
-45.958931 -33.737305 7.0431924 0.0037701877 -0.54258084 -0.83999521
-43.784428 -31.970982 5.8083324 -0.10387833 -0.59351897 -0.79808801
-46.797501 -35.265766 7.9570465 0.04697169 -0.55558509 -0.83013183
-46.057098 -28.864157 -1.3673015 -0.72468621 0.27837506 -0.63034683
-43.675797 -16.799046 -9.4398575 -0.61633271 0.36715272 -0.69665843
-41.750378 -9.7914982 -17.257273 -0.61446464 0.26959962 -0.74145079
-35.389202 -0.31618774 -19.972132 -0.85475844 -0.18326014 -0.48559639
-49.218155 -35.281109 7.6792583 0.023210563 -0.55824757 -0.8293497
-36.543148 -3.0252864 -15.20894 -0.85184908 -0.063766375 -0.51989132
-49.57299 -37.597416 9.2894268 -0.027897317 -0.62119615 -0.78315842
-43.41642 8.1736603 -14.406398 -0.077229924 -0.16929108 -0.98253554
-47.42799 -31.186565 4.9582386 0.10517148 -0.6086148 -0.78646487
-47.645519 -28.952751 0.37518185 -0.83082038 0.16556448 -0.53134352
-42.260834 -13.515973 -10.331375 -0.84107572 -0.14636488 -0.5207389
-42.644108 -8.6270294 -15.921434 -0.54792112 0.48343801 -0.68269336
-41.480526 11.008203 -15.328333 0.097411394 -0.34362304 -0.93404192
-43.077797 -14.636271 -9.2598314 -0.75968933 0.12923381 -0.63731521
-29.56951 3.947582 -16.964676 -0.36900672 0.55338871 -0.74672288
-17.39422 14.735727 -15.074419 -0.69019079 0.38664281 -0.61167306
-40.916748 10.047736 -14.916192 -0.086297795 -0.18058488 -0.97976619
-36.002449 0.47583169 -18.759342 -0.87992394 -0.29047355 -0.3759774
-7.5691586 23.500488 -12.861855 0.28636363 -0.16002533 -0.94466275
-45.650169 -23.20924 -0.27450436 -0.74539703 -0.28654188 -0.60189456
-36.698795 1.6621652 -18.473377 -0.85409009 -0.066360936 -0.51587433
-47.368828 -21.567282 -1.3440154 0.11189978 -0.38180658 -0.91744328
-46.365395 -22.555618 -0.48984012 0.14494464 -0.48700953 -0.86128557
-44.603985 -19.811621 -10.824918 -0.46265236 0.55619615 -0.69036126
-28.984497 7.2260904 -15.646338 -0.72597843 0.15312549 -0.67045349
-27.689335 11.074545 -17.529827 -0.79889137 0.055840973 -0.59887761
-11.520962 24.870352 -13.959906 0.23262952 0.059606772 -0.97073704
-50.503365 -0.13934217 -11.810145 0.23924287 -0.4588052 -0.85572225
-48.184643 -24.838099 0.31299096 0.12952895 -0.58305341 -0.80204177
-48.896957 -23.767466 -0.72739458 0.028341262 -0.45679009 -0.88912296
-12.345871 23.262426 -14.090941 0.2232347 -0.11975511 -0.96738046
-30.46137 7.1068921 -14.453404 -0.54329216 0.42286471 -0.72527182
-50.41674 -27.156128 1.7349685 -0.12045275 -0.56458622 -0.81653756
-44.355 -7.3039737 -13.816638 -0.24570936 0.53537297 -0.8080858
-37.181438 1.657461 -16.81267 -0.92919171 -0.13512053 -0.34401336
-24.617758 13.288861 -14.37613 0.40740332 0.64476001 -0.64676666
-47.785778 -20.219383 -2.043623 -0.062430039 -0.60879606 -0.79086649
-45.21981 6.554636 -13.987946 -0.22118519 -0.11336109 -0.9686209
-40.297409 -3.3248971 -11.715421 -0.49237162 0.4390263 -0.75154912
-16.589333 22.853794 -15.020885 0.22924423 -0.057991769 -0.97163987
-15.633609 22.285902 -14.714869 0.25823376 -0.13547647 -0.95653617
-53.830906 -27.14003 2.0638254 0.050318185 -0.63373852 -0.77190906
-51.21265 -23.457184 -0.097964823 -0.15947205 -0.43461066 -0.88638717
-29.579126 8.8735628 -14.533463 -0.81532425 0.16423297 -0.55522418
-44.708561 -8.829051 -8.3679066 -0.73944485 -0.55357122 -0.38311911
-38.721512 -1.859237 -12.564078 -0.71119016 0.17017971 -0.68209052
-25.645445 16.414516 -14.97534 0.24391939 -0.40443164 -0.88144112
-21.725523 17.473545 -14.490639 0.20495375 -0.34183213 -0.91713941
-15.750087 24.318077 -14.993299 0.26023781 -0.091607556 -0.96118903
-53.812435 -28.069624 2.8282275 -0.0309003 -0.58470911 -0.81065434
20.887371 -20.54117 1.5167093 -0.77898496 0.5830133 -0.2308199
-41.446167 -3.2529249 -10.81547 -0.3550334 0.55878383 -0.74947453
-38.732002 -0.010008068 -12.25747 -0.83694243 -0.16429447 -0.52204859
-19.007208 22.46109 -15.417109 0.11436484 0.053848434 -0.99197835
-49.587097 -20.236633 -1.886498 -0.042446699 -0.5320878 -0.84562457
-45.577717 -5.636858 -12.041955 -0.32620099 0.63285851 -0.70219862
-43.630825 -5.4467731 -12.204713 -0.20437852 0.69817317 -0.68613672
-39.742664 -0.79338127 -11.019137 -0.42421094 -0.058597133 -0.90366554
-23.887772 16.032028 -14.35688 0.1062694 -0.36769632 -0.92385399
-20.430115 20.791735 -15.603138 0.16048527 -0.26448238 -0.95094341
-54.026142 -24.390669 0.31456262 0.018088844 -0.51625168 -0.85624588
-41.639923 -2.3448429 -10.593874 -0.051420774 -0.20416325 -0.97758538
-18.641319 23.855234 -15.515256 0.17210495 -0.10363735 -0.97961175
19.94025 -25.779373 14.329275 -0.36271325 0.84703034 -0.38855973
-44.210934 -4.1750789 -10.495414 -0.15648048 0.47048289 -0.8684237
-54.97644 -10.456336 -4.9016242 0.11975127 -0.3824656 -0.91617662
-53.807762 -18.402948 -3.3194063 0.008199566 -0.50278634 -0.86437184
-49.883015 -15.63592 -4.815073 -0.11009698 -0.20766212 -0.9719851
-47.188915 -11.240853 -7.2033353 -0.0074161873 -0.42222768 -0.90645945
-39.663475 1.5725185 -12.187917 -0.16496551 -0.36826986 -0.91496646
-20.925154 -0.29954228 -27.559183 -0.7558496 0.04369415 -0.65328568
-21.206673 22.720417 -15.76205 0.1321543 -0.086910963 -0.98741162
-53.915508 -21.12846 -1.6992646 0.071590915 -0.51256371 -0.85565948
-49.141392 -12.530162 -6.45543 -0.02373915 -0.40801662 -0.91266584
-33.416245 10.80061 -14.972795 0.14970991 -0.18979234 -0.97034311
-41.890945 0.64363211 -12.292686 -0.015736841 -0.25571719 -0.96662349
-41.197128 0.052691512 -11.642716 0.21871033 -0.45723909 -0.8620314
-35.52702 7.5241899 -13.567654 0.043696668 -0.28952569 -0.95617235
-24.833414 21.707291 -16.238304 0.179713 -0.24499997 -0.95272148
-40.570988 2.5157201 -12.473697 -0.020268388 -0.26199418 -0.96485662
-34.457764 8.6666842 -13.877671 -0.038551368 -0.358105 -0.93288505
-31.454872 13.546954 -15.608424 0.2459579 -0.30317241 -0.92064714
-23.757233 21.181543 -15.900103 0.13441941 -0.15208322 -0.97918439
-14.727933 16.602345 -16.400795 -0.2316293 0.48720592 -0.84200841
-54.897236 -18.191362 -3.1142375 -0.25146279 -0.47963479 -0.84066463
-51.593906 -13.734539 -5.6373143 -0.0093559846 -0.41126585 -0.91146737
-46.521496 -4.5867219 -10.511667 -0.16284525 0.054675728 -0.98513556
-45.788082 -2.8845742 -10.654377 0.050082222 -0.22513169 -0.97304028
-43.530952 0.0086263092 -11.647103 -0.21426584 -0.23680034 -0.94763696
-39.356937 5.2511597 -13.981088 -0.58251214 -0.087338403 -0.80811614
-35.798649 9.4922333 -14.259527 0.20819293 -0.38020343 -0.9011665
-30.756842 15.417905 -15.800589 0.18005475 -0.3407467 -0.92275238
-51.684601 -11.580187 -6.8333411 0.13416618 -0.45353818 -0.88108033
-47.397041 -5.221777 -10.014511 -0.18285131 -0.4122453 -0.89253527
-48.597858 -3.0626454 -10.792466 0.0080389334 -0.3309533 -0.94361293
-41.931774 3.5986528 -12.829555 0.049492784 -0.39696661 -0.91649771
-40.399651 4.9028339 -13.444791 -0.057810962 -0.40546611 -0.91228014
-28.333206 18.089769 -16.335266 0.19624764 -0.16576235 -0.96644181
-27.293242 19.749256 -16.146109 0.14105649 -0.11425986 -0.98338592
-43.015022 1.9245315 -12.192348 -0.018770121 -0.30115247 -0.95339125
-29.472282 19.405197 -16.391045 0.10408457 0.048006728 -0.99340922
-54.844017 -16.531277 -4.0773058 -0.23146674 -0.48106936 -0.84557402
-39.994297 6.5344563 -14.176674 0.020438787 -0.27903888 -0.96006221
-34.034531 12.582793 -15.274143 0.011138968 -0.25293317 -0.96741962
-48.412846 2.8782294 -12.843583 0.22657655 -0.45749131 -0.85986316
-52.960609 -12.102615 -6.6461582 -0.093726538 -0.42948803 -0.89819562
-53.543949 -11.025893 -6.8679895 -0.11472658 -0.41125301 -0.9042725
-46.262974 -0.59671092 -11.496125 0.11410293 -0.3843587 -0.91610527
-45.62175 -1.4585106 -10.970537 0.055354331 -0.35267892 -0.93410569
-41.238083 8.4861145 -14.777406 -0.0068498217 -0.22936849 -0.97331554
-35.521648 13.93947 -15.877668 0.054265127 -0.26203585 -0.96353126
23.757315 -12.581804 14.906855 -0.21809922 0.85706681 -0.46676457
-4.9683022 9.7952204 -17.301361 -0.15633054 0.63433057 -0.75709021
-54.826832 -14.197803 -5.1705375 -0.17782949 -0.40678668 -0.89604759
-54.905968 -12.582356 -6.1543269 0.085154802 -0.47588894 -0.8753733
-54.350239 -10.097865 -7.3530698 0.04404388 -0.43246415 -0.90057474
-53.017647 -7.7373681 -8.3885832 -0.14525385 -0.37327912 -0.91627729
-22.893202 14.833717 -14.069103 -0.092445247 -0.4147827 -0.90521228
-12.950488 -30.324858 -38.218178 -0.42462918 0.053324696 -0.90379566
-46.51479 -14.773328 -5.6463685 -0.5076561 0.24350236 -0.82643324
-42.599716 -0.91598076 -11.671873 0.033517301 -0.45286602 -0.8909483
-36.524914 9.5320072 -14.892125 0.17469192 -0.29475397 -0.9394694
21.690132 -12.888077 15.287187 -0.67331666 0.64048201 -0.36936092
-45.90107 -31.653688 5.7240019 0.03601886 -0.61438727 -0.78818208
-35.076649 -44.357677 15.972473 -0.099781148 -0.65836626 -0.74605465
-31.063288 -5.534296 -25.146736 -0.73735517 0.035546232 -0.67456931
-47.633862 -9.655077 -7.5623603 0.044011932 -0.3885248 -0.92038655
-46.668816 -7.7675085 -8.3570337 -0.06579423 -0.52935523 -0.84584522
-46.079273 -24.661425 0.49696675 -0.53313208 -0.10751578 -0.83917254
-45.487541 -37.676483 9.6921215 -0.022975231 -0.60487604 -0.79598814
-38.932095 -44.25264 15.646042 0.12647739 -0.62563992 -0.76979107
-51.647667 -25.045134 0.81590682 -0.15946203 -0.50458694 -0.84850687
-16.155487 -33.982918 -35.534412 -0.55899167 -0.10042867 -0.82306886
-35.018913 -16.807377 -24.076441 -0.79632109 -0.3117213 -0.51836532
-36.986256 -40.210186 -0.75477397 -0.83565861 -0.018916951 -0.54892331
-42.917999 -9.6566248 -15.241666 -0.86217523 -0.36422765 -0.35212508
-46.223278 -6.0586343 -11.226163 -0.90893412 -0.18266368 -0.3747969
-43.872463 -1.1491065 -11.251122 -0.054256473 -0.38474411 -0.92142719
-47.894714 -6.1628852 -9.5035753 -0.11289334 -0.46261185 -0.87934375
-50.758152 -14.366716 -5.6340685 0.059725095 -0.45945534 -0.88619047
-49.495968 -13.327128 -5.5506763 0.109009 -0.48447251 -0.86798823
-55.613026 -15.225089 -4.6317754 -0.5188635 -0.34502745 -0.78213596
-39.978657 11.591925 -15.305412 -0.084608465 -0.14117269 -0.98636281
-39.620995 -45.797527 16.750488 0.12390549 -0.6394701 -0.75876576
-35.420914 0.97306275 -19.653889 -0.32469398 0.55855554 -0.76327556
-42.980019 -33.761875 7.0334306 -0.028251601 -0.59585613 -0.80259413
-36.210293 -41.906635 13.898148 0.16417207 -0.68300468 -0.71172476
-49.992851 -29.327105 3.2800539 -0.018383497 -0.60941309 -0.79263967
-32.97707 -38.630417 -8.4302416 -0.7873401 -0.49811438 -0.36328718
-47.91864 -8.0716267 -8.6874876 -0.034129005 -0.48083356 -0.87614739
29.656811 0.45963484 13.555328 0.75710523 -0.12402201 -0.64141262
29.877533 -6.3863659 17.143644 0.74858153 -0.37881646 -0.54417253
29.851366 -6.0648484 16.38579 0.66914719 -0.35818627 -0.65111029
13.259922 10.99534 -0.48299104 0.11746134 -0.31769654 -0.94088882
14.648577 11.137771 -0.054071635 0.49020585 -0.12892905 -0.86201835
0.78358614 25.897852 -8.4058132 0.57429034 0.41969484 -0.70288461
2.1470337 25.336092 -8.9546089 0.060196061 0.5854162 -0.8084951
19.100246 -27.995075 24.263294 0.3129501 -0.3413769 -0.88629794
18.293833 -29.400986 23.870575 0.3695257 -0.40591982 -0.8358708
25.343864 -24.658176 25.365738 0.56691498 -0.51226664 -0.64512813
23.93581 -26.815317 25.901165 0.53050172 -0.55706537 -0.63894141
26.9491 -24.096678 26.52853 0.86517572 -0.48691821 -0.11992375
9.1957817 -42.210297 -33.513954 0.74035883 -0.56896257 -0.35798115
18.212135 -36.799324 31.197495 0.67196536 -0.70593661 -0.22386593
16.201853 -37.074978 29.21862 0.46903387 -0.64163357 -0.60688847
17.058613 -33.38694 26.877323 0.49339321 -0.57207108 -0.65520823
18.888466 -31.51119 26.642424 0.45225209 -0.57657462 -0.6804629
17.45228 -31.616316 26.034004 0.34428796 -0.61248893 -0.71156389
7.6637387 -43.244926 -34.853611 0.66454846 -0.64508432 -0.37714911
-29.250935 -46.836102 12.026143 0.35031351 -0.84545273 0.40310058
8.8189678 -39.694355 26.607004 0.4721103 -0.51309776 -0.71682823
9.5669556 -39.532761 27.836258 0.44770136 -0.62176555 -0.64262813
-18.326187 -49.00956 24.669395 0.28400415 -0.61233169 -0.73782897
-47.127117 -19.444777 -2.9868326 -0.6003803 -0.76555687 -0.23122747
-26.790905 -46.497478 19.915207 0.14998944 -0.76523447 -0.62603468
-27.812294 -46.549721 19.137051 0.14647469 -0.69483793 -0.70409185
-5.4024897 -45.724998 -35.157932 -0.27156624 -0.7993632 -0.53597587
-50.050266 -21.369184 -1.9535862 -0.11089233 -0.45454177 -0.88379568
-50.087074 -25.778992 0.57192683 0.054286603 -0.58706391 -0.80771828
-50.424389 -24.563608 0.20830613 -0.16650526 -0.47209769 -0.86567879
-49.11034 -22.987244 -0.57258534 -0.29819867 -0.31895044 -0.89963782
-49.52507 -31.831526 5.3542285 0.014143597 -0.61612254 -0.78752339
-52.37632 -29.678434 3.7010822 -0.097510457 -0.56478232 -0.81945872
-49.112625 -9.6507053 -7.3827591 -0.015599546 -0.44342393 -0.89617628
-43.738705 8.0185356 -14.380461 -0.52283287 0.63959789 0.5635249
20.119272 -13.711097 0.65348852 -0.99757838 0.066754863 0.01952339
-25.762794 -47.955189 25.28677 -0.25257513 0.52239704 0.81443673
22.997206 8.7234039 6.8578992 -0.22790816 0.51484561 0.82643318
25.191862 8.7400064 7.1858883 0.039123654 0.63669425 0.77012324
25.288506 6.8965187 8.6304865 -0.18226345 0.54307622 0.81966352
26.041153 7.4215722 8.1794567 0.041524056 0.61613333 0.78654653
29.316122 -12.442585 21.247429 -0.16410941 0.50121552 0.84961826
-35.053127 -34.556847 -4.2628465 0.69045049 0.6850065 0.23247419
-18.285671 14.988008 -10.832924 0.56519449 -0.56135607 0.60451174
-21.427212 -44.687489 16.519627 0.51425463 0.85525447 -0.063889854
-15.977551 14.081681 -13.827188 0.61420727 -0.44485319 0.65180916
-28.354824 10.638884 -12.579625 0.81117576 -0.062021133 0.58150434
-19.339867 13.276093 -11.436996 0.55816406 -0.54332799 0.62709457
-29.902681 10.372466 -11.289857 -0.023581484 0.3878485 0.92142141
-16.512711 12.122382 -14.660103 0.55496377 -0.47798246 0.68084359
-18.865063 10.64323 -14.081627 0.49421206 -0.53517884 0.68508261
-26.505707 8.7418756 -15.929231 0.78786218 -0.14231485 0.59918249
-16.562304 10.256638 -15.833729 0.52339995 -0.45834213 0.71831399
-17.483294 9.426198 -15.8131 0.40447801 -0.54955435 0.73101813
-31.480225 5.5620637 -12.154509 0.54299533 -0.52336431 0.6566931
-31.483841 7.641098 -10.308823 0.51197386 -0.22107272 0.83006603
-30.308191 7.5626545 -11.52921 0.60845828 -0.46510035 0.64300865
-29.237715 8.0504351 -12.510262 0.75369376 -0.28773296 0.59089375
-27.770393 6.1026902 -15.062644 0.73837405 -0.24315593 0.62903011
-26.34894 6.9588547 -16.558857 0.76483512 -0.18369351 0.61748183
-15.027659 7.610321 -18.605783 0.49710229 -0.4491441 0.74240077
-38.459877 4.9992599 -10.786781 0.37975433 0.46523726 0.79958791
-30.2903 4.2189884 -14.023034 0.53476709 -0.47137725 0.70130426
-28.983829 5.7330484 -14.054151 0.61883307 -0.39902648 0.6766265
-38.159752 2.7732048 -9.7819643 0.74678528 0.21419969 0.62962711
-13.350634 4.3910227 -21.529671 0.49364638 -0.41930562 0.76190293
-25.476126 2.649821 -18.677956 0.7060861 -0.19640388 0.68034393
-24.074375 1.0570003 -20.572887 0.70848954 -0.20429389 0.67550468
-26.471308 3.0556357 -17.51387 0.67545784 -0.25406784 0.69224727
-23.18318 0.50727051 -21.788433 0.69287139 -0.19024336 0.69551182
-39.215641 1.1358532 -8.6418161 -0.10247105 0.47656015 0.87314957
-25.419331 0.99484724 -19.358025 0.59419847 -0.32296541 0.73662853
-20.079065 -2.4160914 -25.50165 0.77371836 -0.0044110292 0.63351429
-22.59417 -3.2391942 -23.2784 0.56415749 -0.29998013 0.76924527
-20.718281 -3.6411536 -25.178986 0.65119344 -0.17702033 0.73797756
-40.038403 -1.5559065 -7.6195741 0.700432 -0.18101779 0.69038218
-37.744576 -2.0340393 -10.607781 0.83017111 -0.10953297 0.54664284
-19.192204 -7.2240424 -27.325758 0.59237921 -0.21987048 0.77507669
-21.155682 -5.7467704 -25.337299 0.61231238 -0.2484448 0.75056559
-10.250633 -6.0592799 -28.600082 0.37331808 -0.40692055 0.83369619
-28.218287 -8.5239191 -23.70138 0.80170703 0.11911045 0.58572912
-29.824862 -7.4238834 -21.724657 0.81034863 0.075831793 0.58102036
-33.937462 -7.5698748 -16.536705 0.66591507 -0.20965672 0.71596164
-30.201544 -9.5471916 -20.930172 0.76863104 -0.019067254 0.63940823
-28.733107 -9.7838526 -22.936386 0.78444797 0.069858849 0.61624759
-17.558405 -9.2106619 -29.109587 0.58203334 -0.20194291 0.7876904
-31.67347 -9.9027843 -19.284006 0.70375097 -0.15905744 0.69241267
-15.767843 -10.696544 -30.7887 0.67361218 -0.087063417 0.73393905
-44.439301 -7.1053843 -5.8479247 0.30475903 0.56003612 0.77037752
-27.174427 -10.201376 -24.668539 0.78175545 0.13045314 0.60978723
-17.639231 -11.181355 -29.532499 0.52720362 -0.22968818 0.81810737
-25.518572 -13.157382 -26.259619 0.7676127 0.077383816 0.6362251
-11.289492 -29.978956 -36.995594 0.45305553 0.043800253 0.89040565
-27.598413 -12.590916 -24.025084 0.73400253 0.0063136113 0.67911738
-31.377447 -11.646077 -20.213017 0.62408304 -0.25487676 0.73861909
-29.862158 -13.826925 -22.206478 0.54857838 -0.30419701 0.77879769
-28.851027 -11.619163 -22.512951 0.70714527 -0.095112331 0.70064187
-14.359981 -13.61531 -32.274063 0.55739599 -0.15248811 0.81612319
-26.497454 -15.130548 -25.197628 0.66748673 -0.097122625 0.73826051
-17.501553 -13.884665 -30.493437 0.38712463 -0.30065149 0.87163246
-28.191261 -14.581259 -23.697054 0.61178166 -0.20537667 0.76390028
-22.692041 -15.846314 -29.13007 0.72538507 0.10238907 0.6806857
-24.426296 -14.696041 -27.470446 0.74319017 0.09395843 0.66245008
-44.484547 -12.004518 -3.3852217 0.76276147 -0.038168117 0.64555264
-32.71682 -17.22858 -21.172077 0.80649471 0.32529765 0.49370816
-23.257816 -17.510801 -28.392498 0.68713164 0.025513314 0.72608489
-12.888563 -16.092499 -33.694511 0.57160258 -0.10571627 0.81369197
-36.094231 -16.316236 -16.161015 0.85726357 0.33635679 0.38982472
-33.696445 -16.255842 -20.135931 0.78768355 0.37293896 0.49037853
-24.813101 -16.55892 -26.951384 0.672216 -0.062330212 0.73772669
-44.870697 -14.785022 -4.5220904 0.69421035 -0.34528264 0.63154721
-41.946587 -14.092222 -7.5783634 0.76890498 -0.13767889 0.62436342
-13.299195 -17.507479 -33.629711 0.50908124 -0.16340482 0.84506512
-43.90226 -13.474634 -4.8399129 0.79965037 -0.1955049 0.56774735
-43.011059 -13.98072 -6.1410818 0.75929403 -0.21406917 0.61452991
-35.054802 -15.79072 -18.716732 0.80116493 0.28577381 0.52580237
-33.310257 -18.345705 -19.832991 0.79525149 0.2690348 0.54331881
-21.614964 -17.930309 -30.069284 0.69889843 0.087864637 0.70980328
-19.576801 -18.054848 -31.967304 0.64514893 0.061933093 0.76154268
-23.677631 -19.068237 -28.198002 0.56435961 -0.16895488 0.80805469
-20.179674 -20.172558 -31.071127 0.6816898 0.075319022 0.72775406
-34.316803 -18.758951 -17.913889 0.81607676 0.26046002 0.51592565
-31.969486 -18.911461 -21.545122 0.79016745 0.27600664 0.54722553
-42.505318 -16.944542 -8.0964394 0.69076395 -0.28785059 0.66331524
-34.202564 -36.609356 -3.3972974 0.76758969 0.55135453 0.3268244
-35.173149 -18.688301 -16.674168 0.82090324 0.17262003 0.54435307
-32.058594 -20.121197 -20.637053 0.7771439 0.28224021 0.56248355
-28.763626 -20.673422 -25.025883 0.78709352 0.3139067 0.53098625
-22.421238 -21.079741 -29.449467 0.44276997 -0.2732127 0.85399622
-19.806219 -21.794252 -31.389641 0.5987739 -0.034693275 0.80016631
-21.350969 -20.254639 -30.041367 0.62113881 -0.05173767 0.781991
-29.837006 -21.12575 -23.425417 0.77619785 0.29039043 0.55963397
-37.300323 -19.115337 -13.931062 0.75041306 -0.097808383 0.65369248
-34.37767 -20.410112 -17.434155 0.75782293 -0.0059704082 0.65243292
-33.057831 -21.014681 -18.98609 0.76962721 0.12232593 0.62666607
-27.679966 -21.149372 -26.562593 0.75262225 0.3166607 0.57730895
-18.400373 -23.807978 -32.360588 0.55400449 -0.072812647 0.82932341
-18.467581 -21.38975 -32.629883 0.6519255 0.068397328 0.75519198
-29.004892 -22.974962 -23.517563 0.77340615 0.22316822 0.59332865
-16.53093 -23.876556 -33.88871 0.61496097 0.063462138 0.78599977
-32.824127 -36.412113 -5.9182782 0.76191831 0.56809878 0.31103745
-38.330917 -22.564245 -15.283087 0.34552005 -0.60707194 0.71559727
-33.585289 -22.813929 -18.48934 0.64565861 -0.21929504 0.73146063
-31.247017 -21.858829 -20.920826 0.77658039 0.21022803 0.59390831
-25.103268 -24.319283 -27.96578 0.74421751 0.30990526 0.59169155
-22.292692 -25.107706 -31.113157 0.58458894 0.0033775631 0.81132257
-36.07024 -24.075409 -17.755009 0.38244563 -0.54781294 0.74406749
-34.80777 -22.669769 -17.36902 0.57494426 -0.35903743 0.73520833
-27.459715 -23.601063 -25.330177 0.75784338 0.27222508 0.59293085
-31.524391 -25.027542 -20.816395 0.54778898 -0.31841922 0.77365136
-15.245098 -24.581638 -34.903419 0.62969422 0.11578405 0.76816612
-32.023235 -23.001242 -20.033218 0.69590634 -0.029688021 0.71751863
-13.289353 -26.182348 -36.116497 0.56827217 0.12728539 0.81293619
-32.525555 -23.872211 -19.643856 0.56484616 -0.28367692 0.77490407
-30.498236 -24.055544 -21.496395 0.72018182 0.02684216 0.69326597
-28.989416 -24.813656 -23.076082 0.73758507 0.1052133 0.66700709
-19.948666 -26.956135 -32.639019 0.64322597 0.18899946 0.74198353
-33.285091 -26.386452 -19.918129 0.70177019 0.64223117 0.30831441
-33.042927 -25.778511 -20.412401 0.54592288 -0.30048662 0.78209722
-24.989384 -26.675453 -26.92647 0.72209525 0.21531025 0.65743428
-11.584921 -26.52408 -37.145111 0.29235661 -0.17603862 0.93996704
-29.642944 -25.709387 -22.442133 0.5854584 -0.26922235 0.76469451
-26.68136 -26.145531 -25.285553 0.70995504 0.12281854 0.6934548
-11.378336 -27.541681 -37.348328 0.49237299 0.07961303 0.86673564
-28.455744 -26.742159 -23.705597 0.57398099 -0.20827965 0.79193771
-23.600758 -26.354851 -28.739803 0.72328359 0.30726764 0.6184234
-19.925238 -28.723656 -31.594624 0.69611514 0.3129597 0.64612687
-18.253557 -28.296703 -33.744419 0.50918466 -0.0041000675 0.8606475
-35.437927 -26.219801 -15.270621 0.84086025 0.40445602 0.35967949
-31.692575 -26.803528 -21.826933 0.56737697 -0.24780786 0.78528631
-26.453875 -27.76082 -25.410053 0.61884576 -0.12498858 0.77550477
-22.811148 -28.617863 -28.644514 0.67336023 0.13928665 0.72607523
-16.988012 -29.253464 -34.327866 0.61210781 0.28791773 0.73649675
-12.574835 -28.465906 -36.318901 0.52929533 0.023353014 0.84811622
-21.993933 -27.019241 -30.183392 0.70634121 0.32457966 0.62907082
-27.972784 -29.210062 -24.901194 0.68357384 0.17562482 0.70843673
-26.489666 -29.599377 -26.077721 0.6535216 0.14275187 0.74332458
-24.506229 -28.672962 -27.112104 0.62089831 -0.073383272 0.78044873
-14.498185 -30.538771 -35.647308 0.51482207 0.15117563 0.84386271
-20.630047 -30.688416 -30.097145 0.64984423 0.095448919 0.75405043
-18.688253 -30.132772 -32.23674 0.66544133 0.25800875 0.70044219
-37.654037 -27.356714 -8.490983 0.8255161 0.37725222 0.41976646
-46.28857 -23.146601 3.6243565 -0.034214612 0.4680782 0.88302451
-36.146671 -28.866735 -10.236989 0.83521062 0.25927487 0.48497394
-32.298012 -28.397238 -18.687763 0.77333814 0.47054401 0.42489585
-39.175007 -26.348522 -6.3174005 0.84367752 0.21993084 0.48973331
-34.163055 -27.194942 -16.558725 0.77797854 0.47678849 0.40917242
-29.81115 -29.687153 -21.212761 0.73750335 0.52975154 0.41887021
-24.062572 -30.888105 -27.7798 0.63971883 0.105621 0.76131731
-17.697077 -32.500999 -32.219311 0.5934909 0.21310909 0.77611405
-35.500053 -27.700731 -12.524124 0.80451995 0.4074522 0.43212327
-33.546673 -29.567352 -14.368633 0.7975291 0.41749161 0.43548587
-28.536444 -30.758854 -22.161459 0.71472228 0.526016 0.46095479
-19.940266 -32.994877 -30.779146 0.63677573 0.26491073 0.72411263
-45.109673 -25.310789 2.2458186 0.71828455 -0.44063875 0.53842813
-32.737339 -29.158796 -16.097584 0.76705784 0.48810616 0.41638291
-41.816048 -27.517599 -2.6943982 0.70221931 -0.27697048 0.65587759
-34.608604 -28.890194 -12.960081 0.82293421 0.32964185 0.46272621
-15.907693 -33.175743 -33.417854 0.57934248 0.23605463 0.78015423
-30.674578 -31.121338 -17.787443 0.7609368 0.46329197 0.45424196
-40.363876 -28.075478 -4.4734259 0.75870448 -0.1423796 0.63568503
-39.08535 -29.024769 -6.2064819 0.69308472 -0.28680712 0.66134357
-38.097935 -28.024767 -7.560276 0.81023622 0.04178524 0.58461201
-34.929401 -29.935387 -11.832424 0.82368261 0.17011356 0.54093277
-28.18037 -32.125107 -20.588575 0.74035448 0.4723416 0.47829759
-23.482018 -33.236614 -26.559566 0.68738323 0.5181613 0.50893342
-31.367765 -31.879444 -16.235209 0.78501242 0.26382169 0.56049407
-41.396656 -29.648178 -4.5635338 0.61200243 -0.45367879 0.64778751
-37.90873 -29.958839 -7.9314804 0.71593356 -0.25915045 0.64829022
-15.505301 -35.065689 -33.606091 0.56363177 0.25068668 0.78706771
-40.192482 -30.155874 -6.1166363 0.57497793 -0.46879786 0.67054379
-35.791496 -31.070719 -10.64864 0.75909895 -0.13768549 0.63624793
-26.305841 -31.995117 -23.860811 0.70803696 0.50488633 0.49373418
-37.787495 -37.466564 3.5959358 0.84503901 -0.030762745 0.53381902
-38.995327 -31.056942 -7.6266346 0.59488791 -0.4440138 0.6700449
-32.548538 -31.511635 -14.770678 0.7875157 0.24226657 0.56667972
-36.016956 -32.224823 -11.243497 0.74849218 -0.075739093 0.6588043
-34.623371 -31.879469 -12.189842 0.72571617 -0.17095143 0.66641694
-33.376755 -32.027569 -13.645401 0.77997643 0.021482971 0.62544006
-26.921389 -33.951111 -21.088425 0.74526548 0.37111551 0.55394274
-31.828018 -33.215183 -15.506049 0.73177284 -0.06988731 0.67795587
-30.097948 -33.379536 -17.464821 0.77186364 0.11691798 0.62494534
-28.168886 -33.96376 -19.67098 0.74066323 0.150214 0.65486914
-21.298916 -35.811592 -26.787872 0.70222914 0.3358295 0.62776798
-37.174423 -31.590334 -9.7170525 0.68683839 -0.31456533 0.65521115
-36.207588 -32.779961 -10.168681 0.80530953 0.45629859 0.37850785
-33.651943 -33.402863 -13.952346 0.75368887 -0.089955524 0.65104622
-25.120504 -34.490345 -23.025686 0.71324998 0.30381322 0.63164228
-33.287464 -34.133511 -13.909172 0.46227983 0.88393909 0.070349112
-35.177135 -33.183681 -12.04565 0.78403342 0.3582508 0.50690043
-29.306547 -35.38961 -18.603611 0.72965342 0.045007613 0.68233436
-32.154305 -34.418556 -15.666372 0.75729698 0.31247425 0.5734641
-23.263973 -35.322987 -24.560368 0.71328759 0.38980547 0.58247113
-28.100822 -35.47715 -19.789722 0.70420229 0.084498584 0.70495331
-26.504738 -36.10704 -21.43507 0.70627427 0.26264489 0.65741497
-26.073839 -35.473 -21.631739 0.71110213 0.068791129 0.69971526
-24.208029 -37.285988 -23.265242 0.69567972 0.37126186 0.61497504
-16.686428 -37.662827 -30.463188 0.62349576 0.45318139 0.63708681
-31.716856 -34.656799 -13.390636 0.55050743 0.82812661 0.10558299
-31.386353 -34.993629 -15.80209 0.44968036 0.89308828 -0.013450864
-30.538872 -35.308414 -17.27392 0.71576905 0.52027404 0.46582147
-34.133209 -33.538116 -9.1662569 0.811975 0.31285495 0.49276602
-30.300713 -35.341148 -14.955075 0.6415543 0.71562332 0.27620897
-28.610273 -36.084419 -18.718042 0.54073322 0.80046529 0.25857854
-22.651678 -37.732399 -24.764822 0.70267254 0.39056283 0.59473693
-17.913889 -38.936909 -28.742414 0.62431431 0.47226843 0.62224931
-32.760456 -34.092247 -11.449454 0.69038337 0.68489635 0.23299727
-20.906622 -38.311512 -26.233992 0.6325779 0.50624359 0.58614218
-26.270266 -36.984898 -19.609716 0.57749355 0.7631253 0.29007056
-26.573118 -36.764572 -20.847965 0.54819942 0.779046 0.30424437
-25.089472 -37.261574 -22.047747 0.52593899 0.80234921 0.28217718
-43.289215 -28.766197 7.5589681 0.34784055 0.81490171 0.46361855
-23.418928 -38.104851 -22.337357 0.61274868 0.70258379 0.36182195
-15.945218 -39.304661 -30.374954 0.57635117 0.57708448 0.57861286
-34.426815 -34.391338 -8.813405 0.72705472 0.63484836 0.26145545
-30.107042 -36.524353 -14.35892 0.67238301 0.68764853 0.27393577
-29.009325 -36.98579 -15.611093 0.68517381 0.62542343 0.37333953
-28.679296 -36.058304 -16.954498 0.61678511 0.73418254 0.28381711
-32.99826 -35.092026 -10.964885 0.74222249 0.58316076 0.33019572
-31.679352 -35.593704 -12.619455 0.72346795 0.6073674 0.32817501
-26.215815 -37.990105 -18.697348 0.63861144 0.66540289 0.38654169
-22.088579 -39.331558 -22.732353 0.58258164 0.72996962 0.35741168
-19.15929 -39.248722 -26.77062 0.56107843 0.70333654 0.43647298
-42.039196 -29.798237 8.0316343 0.60636944 0.71034902 0.35737985
-34.254761 -34.686913 -6.709795 0.65987998 0.736709 0.14770995
-33.07288 -35.377956 -8.5308037 0.64921832 0.74023551 0.17483406
-27.651407 -37.531101 -17.069366 0.61704504 0.7211982 0.31484684
-21.073696 -39.636082 -23.638279 0.56829655 0.73074752 0.3782157
-18.371759 -40.183971 -26.459908 0.54937845 0.70729536 0.44487819
-25.17931 -38.859722 -18.066097 0.57973903 0.75802702 0.29882738
-16.231209 -41.126049 -27.5755 0.57669526 0.67625654 0.4583663
-30.111126 -36.978085 -11.89637 0.68053633 0.69704884 0.22581685
-25.858585 -39.021576 -16.188959 0.57488406 0.75837874 0.30719689
-24.509912 -38.501709 -20.516979 0.62367713 0.6767962 0.39111841
-23.537119 -38.861027 -21.395662 0.59255254 0.70920414 0.38198283
-31.392105 -36.260418 -10.487338 0.62089598 0.75412875 0.21395804
-23.12381 -39.731567 -19.774935 0.59609753 0.72464097 0.34577912
-41.379505 -31.785271 9.5957384 0.64833653 0.49498597 0.57848823
-19.338087 -40.572586 -24.447527 0.57578999 0.71908861 0.38907248
-28.565582 -37.87656 -13.449452 0.63644624 0.72332931 0.26782605
-27.779543 -38.95171 -12.778499 0.72539389 0.56663334 0.39080715
-31.601656 -37.111183 -7.9605556 0.75863415 0.55994314 0.3330735
-30.357832 -37.462078 -9.8063326 0.7473712 0.56134284 0.35542998
-24.388464 -40.255062 -16.648298 0.71112698 0.53750938 0.45319098
-26.748232 -39.137371 -14.559997 0.66303748 0.65474653 0.36288872
-21.467779 -40.201355 -21.356245 0.59494972 0.71011043 0.37653425
-31.95063 -38.593037 -5.4938765 0.83357078 0.42038837 0.35837609
-20.626741 -41.07579 -21.281279 0.6739412 0.57863933 0.45932543
-41.140942 -33.837929 10.452542 0.79701585 0.30159771 0.52326339
-28.840324 -39.401733 -10.293474 0.77829033 0.45367438 0.43410113
-18.262037 -41.696129 -23.872978 0.61224061 0.61652482 0.49503389
-30.678925 -39.357681 -7.2705426 0.79042357 0.42227259 0.44375283
-23.042812 -41.238075 -17.711813 0.70539778 0.50801325 0.49430421
-22.177889 -42.682114 -17.87314 0.68170452 0.51471025 0.5199542
-19.649736 -43.064224 -20.977186 0.61229354 0.67293888 0.41502997
-39.459164 -36.431301 6.5014467 0.86920458 -0.054366015 0.49145466
-26.665171 -40.686714 -12.902431 0.76817846 0.40489644 0.49594438
-22.988525 -42.807465 -16.470568 0.39933637 0.90057582 0.17173707
-41.347725 -34.957821 11.449334 0.43318242 0.52060556 0.73574632
-27.109484 -41.811615 -11.714185 0.79605067 0.27561241 0.53883308
-24.746061 -42.364624 -14.64136 0.70720708 0.52380943 0.47484934
-21.03231 -43.209278 -18.396431 0.4349294 0.86752236 0.24133232
-18.288076 -43.518173 -21.979946 0.48379117 0.79090846 0.37471318
-19.256262 -43.492512 -19.15873 0.43275464 0.87021726 0.23546818
-16.844387 -43.746468 -21.979853 0.44373775 0.86157441 0.24654911
-23.017477 -42.611248 -13.503359 0.29461765 0.9533121 0.066306576
-20.307243 -43.215229 -17.417463 0.54993188 0.80179507 0.2338793
-21.684002 -42.868946 -15.082291 0.43541738 0.88433224 0.16842875
-26.747856 -42.054638 -7.3276844 0.77823246 0.49730235 0.38346398
-22.449478 -43.707657 -13.115268 0.48425603 0.84609294 0.22276184
-19.05055 -44.316109 -17.811211 0.48504129 0.84204167 0.23600993
-17.404003 -44.484673 -20.131306 0.43010432 0.85437804 0.29163063
-28.189182 -41.956226 -4.8399119 0.37701553 0.92602891 0.018158887
-27.088415 -42.337318 -6.1754522 0.41760683 0.90629196 0.065109767
-25.931499 -42.777824 -8.2844372 0.52536047 0.83792138 0.14793298
-25.437586 -42.570667 -9.4081182 0.72291845 0.59314632 0.35435337
-17.75597 -44.769665 -18.180634 0.33514556 0.93158847 0.14078464
-30.717604 -40.762669 -0.37824601 0.42920202 0.90306938 -0.015850846
-26.867598 -42.423332 -3.1466253 0.48355144 0.87237608 0.0716791
-20.924791 -43.968201 -15.248608 0.6064716 0.72732311 0.32123712
-20.411146 -44.273926 -14.159864 0.38942966 0.90826398 0.15297443
-29.25248 -41.378277 -1.1554143 0.42547682 0.90464699 -0.024153059
-29.175577 -41.563637 -3.2543368 0.36144793 0.93109292 -0.049206793
-25.214666 -43.007259 -8.8465881 0.43078929 0.89904445 0.078355737
-24.312687 -43.176292 -10.803472 0.37263134 0.9235732 0.090324394
-18.508871 -44.685513 -16.172125 0.42806527 0.88320792 0.19158281
-29.978531 -40.883419 2.125638 0.4604449 0.88768774 -0.00094122684
-24.296726 -43.542 -6.3123417 0.50818789 0.85054696 0.13533264
-22.553886 -43.736721 -11.179091 0.4270747 0.89429033 0.13361147
-16.403189 -45.212639 -18.180956 0.44131291 0.85646588 0.26778558
-22.865185 -43.991955 -8.3215694 0.51423419 0.83804381 0.18233424
-18.874863 -45.047646 -13.892438 0.56382775 0.77497447 0.28550437
-27.78158 -42.020458 -1.237066 0.4587566 0.88805443 0.030028796
-21.414509 -44.834209 -9.0796051 0.6239509 0.73584616 0.26308864
-16.860867 -46.028877 -15.239264 0.58327985 0.7380203 0.33927959
-25.748123 -42.792439 -5.8570881 0.44861847 0.89124691 0.066486403
-28.026659 -42.105156 1.1690527 0.6414566 0.75655687 0.12710279
-26.742502 -43.038967 0.088186599 0.67157495 0.71353018 0.19965445
-25.30711 -43.669292 -2.2844849 0.64860487 0.73198736 0.20858149
-20.207413 -45.185307 -10.664084 0.56632322 0.7790646 0.26895404
-23.223572 -44.882828 -4.8081474 0.69166231 0.66851532 0.27329561
-21.8214 -45.391254 -6.90172 0.69428551 0.65133256 0.30615944
-28.943075 -41.760231 3.8126252 0.6693812 0.72615659 0.15692469
-27.736181 -43.517422 4.7094307 0.76707447 0.59769571 0.23314521
-19.372074 -46.815914 -9.5324135 0.68656576 0.61778319 0.38336861
-26.843475 -43.947723 2.6116536 0.73190624 0.6394878 0.23530534
-23.898615 -45.555756 -1.8718886 0.73974866 0.60485429 0.29482746
-29.195032 -43.496857 8.1647301 0.81678653 0.4972553 0.2925694
-19.041187 -46.421124 -2.4141173 0.575324 0.79660964 0.18551365
-15.971345 -47.303299 -6.6682229 0.13697048 0.99055892 -0.0056640054
-19.822498 -46.144634 -0.63721901 0.79526669 0.56949788 0.20790201
-19.896126 -46.350323 0.66225135 0.24031454 0.96803981 -0.071748249
-19.212456 -46.722679 -1.3873379 0.3389487 0.94060308 0.019485021
-18.354357 -46.824791 -2.2476087 0.24018711 0.97071254 -0.0052312752
-17.345997 -47.173862 -4.7520375 0.20312765 0.97908568 -0.011421001
-15.517274 -47.396118 -4.6717043 0.24774969 0.96818864 0.035085313
-20.485304 -46.122295 2.1626861 0.24351835 0.96466869 -0.10056376
-17.171766 -47.075657 -2.5481803 0.22291403 0.97456586 -0.023037383
-21.339199 -45.620216 3.4188666 0.35189277 0.92679608 -0.1312274
-18.128466 -46.694801 0.61090344 0.27771285 0.96005327 -0.034251973
-17.498524 -46.950626 4.2380443 0.47603902 0.87838691 0.042700887
-19.799986 -46.02021 4.7213783 0.31455809 0.94702351 -0.064804561
-21.546377 -45.346336 7.4604001 0.25272581 0.96077371 -0.11420839
-21.908262 -44.774803 10.660248 0.40337148 0.91231036 -0.070578679
-20.63015 -45.532867 7.5321107 0.41815761 0.90802133 -0.025329493
-18.927229 -46.28167 3.74863 0.30065 0.95306724 -0.035671148
-21.017784 -45.199677 9.8961372 0.44399902 0.89505196 -0.041795593
-28.191032 -41.69804 20.137766 -0.16261537 0.89035243 0.42523965
-26.021135 -42.776085 21.829737 -0.20470691 0.58238041 0.78671974
-18.485559 -46.696434 8.8081837 0.48831773 0.87221032 0.02819686
-18.825815 -46.384884 6.9550076 0.45402485 0.89037639 0.033035278
-22.019627 -44.36348 14.932179 0.43131578 0.89801615 -0.086796068
-23.321329 -43.057732 20.974552 0.56457543 0.82243019 0.069736548
-17.834257 -43.617107 22.327482 -0.31558034 0.87289566 -0.37210515
-28.388094 -44.555157 22.379242 -0.13433453 0.63167453 0.76350605
-27.49404 -45.357719 22.899847 -0.039973173 0.59219229 0.80480456
-22.367287 -44.701611 24.053362 0.12367143 0.91138977 0.39252272
-29.571831 -46.553928 26.526596 0.66599989 0.20138949 0.71825236
-29.12916 -47.911194 25.062315 0.94944954 -0.10605601 0.29546177
