# .PCD v0.7 - Point Cloud Data file format
VERSION 0.7
FIELDS x y z normal_x normal_y normal_z
SIZE 4 4 4 4 4 4
TYPE F F F F F F
COUNT 1 1 1 1 1 1
WIDTH 721
HEIGHT 1
VIEWPOINT 0 0 0 1 0 0 0
POINTS 721
DATA ascii
88.586922 -23.277521 4.6468782 -0.87070429 -0.23873849 -0.42997432
91.417244 -22.818428 -1.7132504 -0.85713017 -0.27812701 -0.43355882
76.37027 -26.820377 30.981588 -0.88313252 -0.1928997 -0.42762896
78.020699 -27.106565 27.62746 -0.87804472 -0.20020866 -0.43468845
79.923332 -26.139545 23.577061 -0.86854088 -0.2201947 -0.44401693
60.555363 -33.269753 65.952011 -0.88762707 -0.16665475 -0.42935348
83.20742 -23.409964 15.914371 -0.87571084 -0.24639854 -0.41523275
90.918472 -21.423262 -2.3837211 -0.79152852 -0.47043663 -0.39009225
57.08392 -31.894272 72.485085 -0.89580238 -0.15585548 -0.41622981
70.677109 -25.233511 42.479343 -0.8985936 -0.17402463 -0.40279645
87.190735 -21.901157 6.4270878 -0.85519892 -0.26314268 -0.44653201
58.622837 -28.758144 68.011528 -0.88949728 -0.1660099 -0.42571741
81.348938 -21.856756 18.483196 -0.8627876 -0.25577539 -0.4360922
82.899055 -21.206348 14.098986 -0.82488561 -0.42371196 -0.3742083
84.578552 -21.805939 11.306459 -0.87204206 -0.27843758 -0.40251106
74.75312 -26.597265 34.285664 -0.87600267 -0.22013658 -0.4291378
73.128571 -26.389448 37.614704 -0.88090253 -0.1996489 -0.42912829
79.17292 -21.977365 22.777544 -0.8719604 -0.22166307 -0.43652111
73.399529 -22.064264 34.278397 -0.87139922 -0.25316498 -0.42020339
77.240875 -21.772242 26.862013 -0.88364899 -0.19691007 -0.42472437
71.453552 -22.520288 39.016933 -0.89157754 -0.21072297 -0.40085563
75.653961 -22.041664 30.070082 -0.86687249 -0.22984658 -0.4423829
-112.09274 -65.973938 11.481583 -0.96263719 0.13734229 -0.23338111
17.50502 -20.264494 95.931465 0.23155698 -0.29375657 -0.92740947
20.070248 -18.311327 95.583557 0.13826174 -0.32283616 -0.93630147
39.716904 -18.294971 91.7379 -0.51291376 -0.19818299 -0.83525032
38.989624 -14.808951 91.241898 -0.4966318 -0.32528883 -0.80470121
25.472765 -17.494457 96.152939 -0.051933724 -0.2872172 -0.95645654
35.228134 -15.942685 93.511749 -0.34659714 -0.30240551 -0.88793093
26.831442 -15.964741 94.753258 0.072285078 -0.70747381 -0.70303321
30.705492 -15.547642 94.73185 -0.19195624 -0.33751136 -0.92154163
33.118282 -14.542475 93.26532 -0.28323019 -0.56337076 -0.77614051
37.985634 -13.643852 90.693283 -0.30618474 -0.5974946 -0.74111474
41.894901 -13.644323 88.668953 -0.58711618 -0.31922603 -0.74390149
46.861332 -13.823443 83.696304 -0.7116589 -0.31842566 -0.62621629
47.882942 -16.653265 83.974243 -0.7751081 -0.21399207 -0.59448701
44.517265 -13.922191 86.444199 -0.68813133 -0.28347915 -0.66791832
48.837189 -14.064153 81.60704 -0.84303486 -0.20617023 -0.49677572
51.809864 -14.424989 75.532516 -0.84459078 -0.29201174 -0.44877115
56.039188 -39.656879 78.112717 -0.8958717 -0.16870908 -0.41103673
33.392376 -65.520866 105.40561 -0.34980369 -0.17966588 -0.91943324
36.948345 -64.358543 103.66611 -0.39020637 -0.19545533 -0.89974231
41.340523 -62.836689 101.31321 -0.46808991 -0.20105813 -0.86050427
42.719334 -60.297432 99.881813 -0.51586574 -0.21523321 -0.82919067
45.766254 -64.278801 98.858963 -0.56847876 -0.20531276 -0.79666716
31.698618 -61.648525 105.01287 -0.33296797 -0.23171858 -0.9140234
46.206688 -59.611122 97.318718 -0.62339652 -0.21129969 -0.75281411
36.190445 -61.001743 103.40365 -0.36102548 -0.20971458 -0.90866953
34.621407 -58.085472 103.08859 -0.33306265 -0.23111142 -0.91414273
31.702415 -56.401287 103.7342 -0.25943896 -0.23819095 -0.93592548
38.237129 -56.972775 101.55006 -0.43648803 -0.22977626 -0.86987412
35.249554 -51.053417 101.26495 -0.33863375 -0.19220644 -0.92107749
38.468353 -54.231155 100.64265 -0.41325372 -0.19751094 -0.88893801
48.289673 -56.961246 94.695778 -0.64397341 -0.19930691 -0.73863047
43.777298 -55.0439 97.813454 -0.54396266 -0.20255561 -0.81429464
46.308231 -52.036991 95.125687 -0.62451637 -0.17882954 -0.76026267
49.376667 -53.230679 92.710678 -0.69428992 -0.2020199 -0.69076002
31.95117 -50.709499 102.32755 -0.2894758 -0.19491434 -0.93712974
39.893307 -50.341927 99.249886 -0.44897294 -0.18768872 -0.87361109
29.657833 -49.634975 102.45245 -0.64736736 -0.21892117 -0.73006094
44.217243 -47.803745 95.920914 -0.58152127 -0.19064461 -0.79087776
35.490826 -46.459854 100.39792 -0.35054767 -0.20521359 -0.91378534
42.689964 -50.262917 97.451096 -0.54823935 -0.19095121 -0.8142305
47.774845 -47.525574 92.760399 -0.68595105 -0.18753219 -0.70306677
52.399124 -49.797081 88.25296 -0.76976156 -0.19995581 -0.60620528
74.947701 -59.063091 45.988625 -0.8900044 -0.16397868 -0.42544466
50.720303 -45.858246 89.133904 -0.75286239 -0.18092702 -0.63282186
32.57056 -43.542618 100.53589 -0.26674888 -0.22798191 -0.93641299
40.350471 -45.243122 97.593727 -0.47051394 -0.20626283 -0.85794657
54.658657 -49.794724 84.437645 -0.84539038 -0.19343959 -0.49789172
55.628902 -48.764114 83.127747 -0.87690991 -0.14389972 -0.45860878
79.810593 -61.278748 36.761475 -0.88505656 -0.136987 -0.44487035
29.077513 -42.308239 101.10244 -0.43497327 -0.24900451 -0.86532944
81.184929 -61.651932 34.217743 -0.89823931 -0.13181981 -0.41927275
36.461784 -41.695309 98.831894 -0.37746224 -0.22723354 -0.89771217
59.052376 -48.298466 74.946121 -0.90421909 -0.14992876 -0.39988631
44.838829 -43.341816 94.147324 -0.61955953 -0.20022231 -0.75898427
59.896484 -46.218174 72.734779 -0.89893591 -0.17698629 -0.40073693
80.16716 -57.941139 35.125469 -0.88516641 -0.15255719 -0.43955278
41.515755 -41.974159 96.288208 -0.51707608 -0.20044085 -0.83213931
44.401054 -38.940426 93.443878 -0.59059274 -0.1946919 -0.78313172
58.596142 -45.336922 75.609787 -0.89950663 -0.16254596 -0.40554497
30.883307 -39.091248 99.97258 -0.30602208 -0.22075577 -0.92607635
39.29504 -37.582474 96.50074 -0.42347479 -0.21081743 -0.8810364
47.564999 -41.967632 91.463211 -0.6785447 -0.18507589 -0.7108615
49.099739 -40.428295 89.416367 -0.74087042 -0.18572538 -0.64545882
52.666061 -38.23634 84.334518 -0.82625133 -0.1509724 -0.54269326
49.548462 -36.479881 87.799934 -0.74303806 -0.18146837 -0.64417672
64.475914 -46.811859 63.035019 -0.88331395 -0.10242936 -0.45745453
28.473925 -35.017185 99.666389 -0.47179845 -0.2237395 -0.85284638
32.839008 -35.759594 98.70417 -0.31352687 -0.18845312 -0.93069136
42.000828 -35.93631 94.447456 -0.536933 -0.19112709 -0.82168931
68.445023 -34.951843 50.449108 -0.89048094 -0.14399183 -0.43163654
64.690132 -43.075642 62.225483 -0.8673327 -0.12026528 -0.48298058
66.013695 -44.705116 59.692764 -0.91160148 -0.10979015 -0.39614239
30.719637 -31.31119 98.212997 -0.24594679 -0.20970339 -0.94632691
37.989697 -34.232719 96.332466 -0.42095894 -0.1951144 -0.8858465
46.162144 -35.767799 91.206497 -0.66376954 -0.18832397 -0.72383988
65.504089 -41.330566 60.189716 -0.88673532 -0.22906552 -0.4015339
63.664291 -36.906082 60.905682 -0.88449949 -0.20411345 -0.41952157
34.727016 -30.512001 96.97953 -0.33246776 -0.20345254 -0.92090833
43.211269 -30.975176 92.516518 -0.57826966 -0.20084281 -0.79073787
35.456017 -25.514652 95.521591 -0.39191052 -0.20135078 -0.89769924
38.804626 -29.449564 94.789398 -0.46732181 -0.20606986 -0.85973573
67.869202 -37.620197 52.545113 -0.89188391 -0.14629793 -0.42794865
27.713015 -25.021627 97.61425 -0.24167794 -0.33767706 -0.90970653
40.213284 -26.416599 93.212646 -0.50228554 -0.21030319 -0.83873826
43.550205 -27.231627 91.136612 -0.62248135 -0.20086284 -0.7564199
49.00227 -25.882025 85.226791 -0.77016854 -0.21256815 -0.60137779
30.477207 -24.813576 96.93325 -0.26318389 -0.20039158 -0.94370407
54.721638 -28.689434 76.936249 -0.90875834 -0.13090254 -0.39626098
43.962181 -23.153728 89.77861 -0.60099125 -0.18722032 -0.77701867
35.18515 -20.892181 94.71067 -0.37748739 -0.19594228 -0.90504682
53.013851 -25.398275 80.546036 -0.85737807 -0.20977157 -0.46999863
30.2952 -20.391718 96.069839 -0.21611437 -0.22379526 -0.95037383
40.264896 -23.354542 92.521423 -0.51043904 -0.18676195 -0.83938789
51.026936 -25.81319 82.264687 -0.76341659 -0.19916223 -0.61443436
54.05312 -24.730972 76.847839 -0.90674365 -0.2532804 -0.33714211
54.944084 -24.658503 74.470001 -0.89175624 -0.23013939 -0.38962379
47.476166 -21.137236 85.669739 -0.7482838 -0.18255875 -0.63776451
25.840387 -21.282339 96.847763 -0.067055516 -0.22176699 -0.97279137
49.083889 -21.471664 83.500526 -0.80629301 -0.19421311 -0.55872416
53.457539 -20.85355 75.267418 -0.88485134 -0.21124673 -0.41522625
57.931156 -24.000525 67.890869 -0.88375527 -0.18971248 -0.42776838
58.876308 -23.851402 65.899712 -0.87730348 -0.18192044 -0.44412121
56.242233 -23.037418 70.535378 -0.88065141 -0.19935744 -0.4297787
51.020084 -21.654181 81.116455 -0.791255 -0.25559822 -0.55550438
62.316029 -26.222084 59.394173 -0.89152318 -0.13729581 -0.43166682
67.10183 -30.687956 51.678829 -0.88107961 -0.15622966 -0.44642031
43.166412 -18.047779 89.201408 -0.61642051 -0.2191575 -0.75630409
45.027256 -16.754944 87.037567 -0.68967396 -0.22215371 -0.68920076
52.174637 -20.978659 78.129967 -0.87863284 -0.27073729 -0.39332631
51.022564 -17.633465 79.085579 -0.85088074 -0.23880489 -0.46794671
57.322174 -21.321751 67.703812 -0.88884991 -0.16742772 -0.42651349
59.078465 -21.729803 64.236816 -0.87113613 -0.20467213 -0.44635323
63.841942 -24.844589 56.47628 -0.88348448 -0.14586255 -0.44517341
55.198898 -19.867718 71.915771 -0.87469923 -0.18193504 -0.44922271
60.781956 -25.145285 62.773216 -0.88677573 -0.15883587 -0.43405065
61.652298 -22.589039 60.088318 -0.87850404 -0.19475035 -0.43623728
67.571846 -28.052595 49.922714 -0.87766039 -0.16354184 -0.45051777
52.554649 -18.51177 76.665123 -0.88687313 -0.2039474 -0.41456175
53.700314 -18.251612 73.539139 -0.87952715 -0.19528025 -0.43393266
65.431641 -27.613693 53.828419 -0.88513911 -0.15149356 -0.43997568
65.800842 -23.307053 51.32143 -0.88534224 -0.15847756 -0.43709728
67.832207 -25.949036 48.58477 -0.88291496 -0.17703596 -0.43487862
49.092968 -17.467239 81.778664 -0.82632953 -0.190595 -0.52995563
62.086712 -21.651714 58.157288 -0.87550271 -0.22225258 -0.42906725
64.71917 -22.534485 53.749905 -0.88551897 -0.18942304 -0.42423463
50.330364 -14.452631 78.083488 -0.86004978 -0.31388074 -0.40223551
55.42403 -16.025948 69.340309 -0.87389189 -0.28172997 -0.39615801
59.981888 -19.379885 61.459469 -0.87499702 -0.21687172 -0.43283567
68.815674 -25.046423 45.993137 -0.89110762 -0.1727042 -0.41964322
57.696335 -18.581926 66.044601 -0.87958789 -0.25504702 -0.40159214
53.119629 -15.056163 73.343353 -0.8692084 -0.23101872 -0.43715793
63.753628 -19.570051 53.927097 -0.87136823 -0.2214094 -0.43783027
56.412601 -15.882866 65.726921 -0.83056551 -0.43584242 -0.34670207
61.876434 -18.371874 57.449371 -0.87718993 -0.17785686 -0.44598737
66.578598 -21.327595 49.245651 -0.88599038 -0.18268283 -0.42620179
68.950752 -22.512907 44.609367 -0.884592 -0.21281207 -0.41497949
59.801785 -17.496119 60.70105 -0.84118354 -0.3421436 -0.41874573
52.84285 -28.020233 80.611504 -0.84056222 -0.12134188 -0.52795005
60.456997 -28.221853 64.310654 -0.88424069 -0.15629078 -0.44010401
-84.985939 -44.193638 52.978493 0.44623849 -0.18887381 -0.87475592
-83.262047 -43.987488 53.83115 0.44114628 -0.22500901 -0.86876976
-74.879463 -40.306808 57.166729 0.43455306 -0.22230572 -0.87277937
-78.896881 -41.414711 55.429646 0.43689296 -0.22526564 -0.87085009
-77.273056 -38.520443 55.484917 0.43760747 -0.23213194 -0.86868548
-71.974121 -37.55534 57.836945 0.43102399 -0.22195151 -0.87461758
-32.070244 -25.059906 74.392761 0.43376949 -0.25270644 -0.86486036
-25.508146 -23.115402 76.689941 0.42484862 -0.27124202 -0.86367321
-20.643927 -22.562962 79.136063 0.41947392 -0.28350791 -0.86236
-44.968189 -22.343287 67.11853 0.43111458 -0.22941983 -0.87264353
-28.197945 -21.319996 74.889771 0.39549419 -0.34482303 -0.85128224
-13.868553 -19.50029 81.361252 0.44667095 -0.26530388 -0.85445827
-18.202024 -19.497112 79.006195 0.40493214 -0.32607529 -0.85422766
-37.181736 -21.025286 70.426094 0.42049745 -0.33920705 -0.84149897
-24.706795 -19.552206 76.106285 0.43454266 -0.31548592 -0.84358835
-41.15316 -21.381315 68.679649 0.42884547 -0.29396224 -0.85421181
-36.70195 -19.75164 69.52507 0.35944572 -0.66751146 -0.65209442
-31.624296 -20.596891 73.267143 0.40805629 -0.40937978 -0.81602591
-29.234753 -19.185583 72.929871 0.37051401 -0.60138249 -0.70785481
3.5969288 -68.594162 103.55713 0.40187991 -0.31014922 -0.86156833
24.461828 -67.91507 107.58996 -0.039223276 -0.29460657 -0.95481336
15.762812 -65.886772 106.33749 0.14953095 -0.25731021 -0.95468938
22.908043 -64.58297 106.62567 -0.01696692 -0.15868638 -0.98718321
24.631357 -63.128334 106.65487 -0.06060075 -0.16249295 -0.98484701
28.209103 -63.210011 106.35313 -0.13654143 -0.19736254 -0.97077513
27.568699 -61.521019 106.13492 -0.10787884 -0.21220267 -0.97125292
14.601491 -59.07626 104.67997 0.21036747 -0.19187932 -0.95860726
22.478022 -60.30785 105.97489 0.040229037 -0.22415702 -0.9737224
50.230423 -64.375557 95.053558 -0.6517635 -0.21433501 -0.7275058
26.633308 -56.540047 105.63605 -0.20069483 -0.2253333 -0.9533869
52.239815 -62.597301 92.555191 -0.72371548 -0.20434949 -0.65914869
19.471201 -55.404392 105.18269 0.12840621 -0.22473381 -0.96592265
23.87668 -56.333233 105.19979 0.030494282 -0.17319287 -0.98441571
20.424114 -53.496113 104.49585 0.004160373 -0.22733621 -0.97380745
25.286665 -53.936733 104.74019 -0.061200302 -0.25843826 -0.96408719
18.790339 -50.821472 104.27501 0.11166923 -0.24667571 -0.96264273
-85.63903 -65.996201 57.92017 0.44560966 -0.17542845 -0.87787068
20.435654 -47.339458 103.00026 0.13829887 -0.18669029 -0.97263569
51.278912 -58.290955 92.337891 -0.72683924 -0.19638348 -0.65813243
23.299402 -49.638691 103.53377 0.026288155 -0.21419905 -0.9764362
25.572271 -50.84288 104.56789 -0.040739052 -0.19046809 -0.98084772
52.039841 -54.223301 90.159744 -0.7541706 -0.19933857 -0.62569237
23.266079 -45.541859 102.77771 -0.0029897399 -0.20299846 -0.97917455
-79.49279 -58.211887 59.242085 0.40255046 -0.19483957 -0.89442199
21.183113 -46.578308 103.57645 0.026579127 -0.25501609 -0.96657145
26.727034 -47.3941 103.24561 0.091545381 -0.23906423 -0.96667874
17.644598 -46.724117 102.7439 0.19964074 -0.1266086 -0.97165519
26.520061 -44.793209 102.77466 0.064071082 -0.25000462 -0.96612251
54.607307 -51.663185 86.067345 -0.81951737 -0.21712907 -0.53032649
17.736719 -42.947083 101.87851 0.18797168 -0.22907107 -0.95508802
26.823864 -41.391384 101.64883 -0.19361229 -0.17593707 -0.96517378
22.012842 -42.17577 102.48479 0.093033977 -0.12816852 -0.98737913
24.068048 -41.775452 102.01306 0.0062530814 -0.21625376 -0.97631717
26.507696 -40.008793 102.32134 -0.052317411 -0.09419854 -0.99417782
-82.120155 -52.368572 56.323402 0.42313376 -0.25853238 -0.86840016
22.572567 -39.263462 101.30009 -0.053657588 -0.23792888 -0.96979928
28.605223 -39.453651 100.87117 -0.51608801 -0.1016304 -0.85048479
-83.297348 -49.78883 55.158298 0.43965369 -0.21552712 -0.87192476
-79.992615 -49.49332 56.824707 0.43576396 -0.20474796 -0.87646341
18.441446 -37.614296 101.25953 0.17186378 -0.16798803 -0.97069198
25.107265 -37.313538 100.91557 0.11347488 -0.16860667 -0.97912985
-75.158913 -47.183872 58.651863 0.43895561 -0.21402346 -0.87264645
17.839861 -34.414089 100.72952 0.17388219 -0.22804216 -0.95799881
21.472279 -36.604969 101.06814 0.0067369672 -0.19565514 -0.98064965
25.466333 -33.724754 100.89752 0.11012711 -0.18004479 -0.97747421
27.889505 -36.471485 101.54154 -0.32203445 -0.19946247 -0.9254775
-85.620247 -48.111488 53.649616 0.46080869 -0.19780196 -0.8651762
27.563379 -32.155094 100.59895 -0.2702601 -0.24525511 -0.93102598
18.611097 -33.168594 100.14146 0.097933568 -0.25646591 -0.96157902
16.219816 -32.16935 99.314377 0.30192447 -0.17463063 -0.93720102
23.22056 -32.952675 99.768326 0.081304088 -0.2155309 -0.97310638
-80.607681 -46.029964 55.842606 0.43346784 -0.20705611 -0.87705952
20.774256 -30.57444 100.00429 0.045816462 -0.1596179 -0.9861151
27.080462 -30.571165 99.981613 -0.22446501 -0.22507021 -0.94813442
-76.554207 -43.683002 57.020596 0.43041351 -0.20766473 -0.8784188
15.936512 -29.47188 99.158577 0.26656792 -0.16658658 -0.94931054
23.67823 -30.527864 99.754944 0.098098896 -0.20652469 -0.97351128
21.457466 -25.645708 99.18132 0.056703102 -0.31636837 -0.94694018
23.839855 -27.976744 99.004753 -0.028377237 -0.14871503 -0.98847288
17.643494 -26.109194 98.475204 0.20338635 -0.39688814 -0.89504963
22.845934 -23.601976 97.501335 0.037051298 -0.44639727 -0.89406747
8.8609018 -25.830799 94.38298 0.41471231 -0.29951513 -0.85924649
47.484013 -27.682018 87.655632 -0.70608824 -0.19903043 -0.67957795
6.6762342 -22.919994 92.19574 0.41921332 -0.31389377 -0.85189843
16.054924 -24.697926 96.762337 0.30541918 -0.36489376 -0.87952918
18.204876 -22.891809 96.730827 0.1535784 -0.34963161 -0.92421395
22.455063 -20.258587 96.607132 0.092185035 -0.26257351 -0.96049833
-6.1071701 -25.100634 86.979721 0.40955269 -0.28873792 -0.86538833
-0.13716644 -24.317045 89.469582 0.41405135 -0.27304599 -0.86833596
45.716003 -23.319679 88.191772 -0.69867069 -0.1896093 -0.68986052
-14.241388 -23.370655 82.260628 0.44151312 -0.26151726 -0.85829765
12.690728 -22.418194 95.04245 0.33689395 -0.29771546 -0.89323449
-23.205448 -25.136543 78.500015 0.42545477 -0.261426 -0.86639756
-1.7343081 -21.838203 88.04129 0.41976684 -0.27961788 -0.86348689
3.100107 -22.226185 90.42765 0.39168757 -0.29851642 -0.87032682
7.3156638 -19.475948 91.146896 0.39964423 -0.32916552 -0.85553169
10.858891 -19.941339 93.417023 0.41278011 -0.31162468 -0.85586375
-17.580448 -22.814713 80.530121 0.40551069 -0.28780222 -0.86760062
-11.26396 -19.894796 82.930611 0.42386591 -0.26052809 -0.86744618
-4.5093546 -21.654806 86.468025 0.44286489 -0.30337504 -0.84370273
-10.188377 -23.027067 84.384377 0.42220074 -0.27314571 -0.86437148
-2.8482943 -19.350039 86.622551 0.44290218 -0.28371611 -0.85049564
1.4330466 -19.786625 88.864487 0.39605677 -0.28691188 -0.87225032
-7.3316631 -19.455425 84.246414 0.39257297 -0.31313634 -0.8647728
31.085159 -63.299969 106.229 -0.25214916 -0.17536259 -0.95166636
30.695332 -59.513027 105.5494 -0.2622996 -0.2125017 -0.94129801
24.097967 -25.159138 98.959068 -0.062489621 -0.49942079 -0.8641029
46.348507 -31.003408 89.666611 -0.68550557 -0.19529274 -0.70138645
28.543564 -42.044289 102.11234 -0.14708188 -0.44356278 -0.88409215
29.019697 -45.598793 103.39445 -0.41923586 -0.19956821 -0.88567138
29.530619 -46.013786 101.93525 -0.36749563 -0.21115541 -0.90573746
29.254787 -50.683784 103.58022 -0.39863765 -0.11880767 -0.90938038
26.997578 -25.426706 99.135704 -0.2306885 -0.26032081 -0.93755841
28.004978 -30.439966 98.709747 -0.49808979 -0.20839281 -0.841712
-89.870468 -26.919611 44.940651 0.68148637 -0.22675462 -0.69581515
-84.200531 -27.575399 49.153572 0.44025314 -0.23353963 -0.8669697
-78.156868 -61.99633 60.801746 0.43243372 -0.2073365 -0.87750363
-71.870605 -64.586998 64.618088 0.34452 -0.45474958 -0.82128483
-57.303814 -63.25885 71.88932 0.44021565 -0.21712726 -0.87124395
-51.958729 -65.554947 75.274467 0.38209939 -0.43799046 -0.81373483
-48.397243 -66.335236 77.526436 0.10768505 -0.78728288 -0.60711592
-39.24493 -67.307922 82.65107 0.35071236 -0.55076027 -0.75740612
-59.977962 -65.605064 71.092545 0.4507075 -0.20367463 -0.8691256
-75.245239 -65.711555 63.115955 0.42888254 -0.4198665 -0.7998575
-67.015274 -66.117065 67.518913 0.39745736 -0.39945439 -0.82611376
-43.314457 -65.88855 79.694473 0.45259196 -0.27267548 -0.84900439
-64.050919 -66.120583 69.061066 0.45294237 -0.23137836 -0.86099201
-49.537304 -63.323376 75.883751 0.43499792 -0.24943221 -0.86519384
-75.248878 -60.604366 61.919582 0.44221973 -0.21145375 -0.87162429
-46.067684 -60.446556 76.849617 0.44403535 -0.22782926 -0.86656022
-37.813244 -61.113949 81.295311 0.4324908 -0.23572372 -0.87027931
-53.772907 -61.545692 73.258255 0.43985701 -0.22856966 -0.86849397
-41.301392 -62.803707 79.973457 0.4479526 -0.25257599 -0.85763854
-21.386938 -65.297409 90.228195 0.4198854 -0.2417095 -0.87479872
-1.4949833 -66.863266 100.46185 0.41394195 -0.28391793 -0.86489463
0.99859703 -64.613716 100.89518 0.41754469 -0.25695187 -0.87156874
-68.264305 -61.580154 65.815887 0.44584152 -0.21590397 -0.86868334
-4.6663394 -62.594223 97.714294 0.42229062 -0.23398602 -0.87574029
-30.452692 -59.123581 84.345871 0.42522669 -0.24002147 -0.87268096
19.75872 -67.58313 107.40258 0.07746768 -0.27479404 -0.9583773
-71.939369 -59.388027 63.377342 0.44779757 -0.2196922 -0.86672533
-65.274124 -59.432354 66.773727 0.45396233 -0.22137147 -0.8630833
-60.923183 -59.284882 69.121277 0.45278159 -0.21799901 -0.86456078
-34.403957 -61.013042 82.901299 0.43024778 -0.23981489 -0.87027323
-26.88286 -62.504818 86.9487 0.41282779 -0.23940212 -0.87878323
-16.613485 -62.066715 91.817184 0.42699462 -0.23565561 -0.87300742
-13.700112 -63.898018 93.646561 0.4156923 -0.24244997 -0.87659454
-74.817726 -54.29808 60.562916 0.43475392 -0.21999229 -0.87326533
-68.526649 -56.97361 64.463104 0.4475013 -0.22775804 -0.86479414
-9.0465746 -61.385658 95.321579 0.43211904 -0.21492478 -0.87583125
13.91693 -62.371185 105.3603 0.20392717 -0.21495247 -0.95509642
18.135216 -62.100842 105.80608 0.13147552 -0.19156876 -0.97263336
-55.509087 -57.531307 71.371017 0.43488607 -0.22585838 -0.8717007
-49.929493 -58.662724 74.426514 0.43755347 -0.22855368 -0.86966097
-46.567917 -55.957851 75.451736 0.44353139 -0.22119218 -0.86853552
-23.974251 -61.064884 88.071465 0.42195868 -0.22643916 -0.87788165
-63.677303 -55.312248 66.511719 0.452259 -0.22837125 -0.86215329
-41.900787 -58.91415 78.61573 0.44261831 -0.23133574 -0.86635607
2.4497929 -61.451672 100.88993 0.421996 -0.22299442 -0.87874508
-59.947578 -54.290649 68.269791 0.44847989 -0.23855364 -0.86136985
-20.317781 -59.456505 89.336914 0.41299772 -0.23638578 -0.87951958
-14.474257 -54.709339 90.792259 0.4408226 -0.23494296 -0.86630094
5.4184027 -59.319855 101.67569 0.39679569 -0.23826 -0.88644534
-79.36293 -53.430264 58.123535 0.43188348 -0.22838578 -0.87253457
-51.634926 -55.104015 72.632767 0.43783149 -0.22365421 -0.87079418
-7.533082 -58.181553 95.210457 0.42027739 -0.24087019 -0.87484199
-66.047836 -51.700146 64.429131 0.43958834 -0.21350485 -0.87245506
-42.333611 -54.26371 77.155037 0.43801066 -0.22682889 -0.8698824
-32.398853 -57.127773 82.865402 0.42271003 -0.22952835 -0.87671715
-11.940565 -58.219994 93.05191 0.42460635 -0.23490617 -0.8743732
2.046417 -57.986259 99.744438 0.42360994 -0.23176974 -0.87569261
-70.01091 -54.443146 62.955952 0.44553819 -0.21336006 -0.8694672
-55.479851 -52.929615 70.168518 0.44031647 -0.22986405 -0.86791933
-37.490784 -57.372562 80.417328 0.43620798 -0.23057449 -0.86980343
-1.2012466 -59.271374 98.527328 0.42325327 -0.23194121 -0.8758195
-69.738373 -50.446976 62.297802 0.45201173 -0.20854759 -0.86729085
-62.286301 -51.576115 66.230812 0.4463819 -0.22395456 -0.86636454
-40.100189 -52.193893 77.738701 0.43489158 -0.23197059 -0.87009132
-34.092064 -53.666733 81.20536 0.42867476 -0.22001708 -0.87625933
-26.789995 -56.715912 85.463379 0.42314419 -0.24316032 -0.87282419
-23.164625 -55.928677 86.992424 0.41474774 -0.24557187 -0.87617272
2.6302712 -52.940704 98.761215 0.43667826 -0.22425348 -0.87121898
-74.10096 -50.851902 60.095066 0.43900481 -0.21273199 -0.8729375
-31.580128 -50.069172 81.556648 0.42090756 -0.22325428 -0.87920094
-28.650072 -51.970982 83.256454 0.41288063 -0.2289101 -0.88154966
4.561914 -55.40226 100.26931 0.40749592 -0.20535155 -0.88981897
-20.381168 -52.637238 87.409317 0.41850665 -0.23327373 -0.87774456
-17.730648 -55.605049 89.402176 0.41801149 -0.23960324 -0.87627441
-8.8423414 -51.619751 92.616341 0.42132926 -0.22259849 -0.87916529
-7.5093412 -54.734238 94.215622 0.42814729 -0.24839967 -0.86890018
-3.1993928 -55.160973 96.386101 0.42015451 -0.24187955 -0.87462246
-1.1197822 -53.642506 97.006599 0.43542176 -0.21518955 -0.87412888
26.468676 -59.280613 105.75439 -0.13289198 -0.20911783 -0.96881855
30.841192 -58.867088 104.62388 -0.254448 -0.30131233 -0.91894895
-68.261436 -46.050644 61.92601 0.44415075 -0.22639363 -0.86687714
-50.814152 -51.859676 72.253952 0.44371065 -0.22644249 -0.86708981
-46.33704 -50.575794 74.216217 0.43867049 -0.23047203 -0.86859137
-24.852259 -47.682873 83.955513 0.41303885 -0.22638682 -0.88212699
9.7230644 -57.405746 102.97775 0.31644192 -0.21431835 -0.92408448
14.576971 -53.534157 103.65064 0.22348323 -0.20617543 -0.95265257
21.482172 -55.814732 105.1979 0.012429417 -0.18062901 -0.98347276
-58.697109 -48.709812 67.418594 0.44876176 -0.21343206 -0.8677901
-55.092632 -47.299049 68.899101 0.43402407 -0.21824488 -0.87406653
27.582041 -55.94025 104.3269 -0.27745277 -0.28392255 -0.91782779
-51.902855 -47.246155 70.415367 0.43949038 -0.22495575 -0.86962241
-12.138914 -51.77084 91.266258 0.41941699 -0.22988127 -0.87820488
-15.260226 -49.197865 88.979706 0.43359521 -0.22531122 -0.87248492
-5.3640456 -51.237148 94.342712 0.45132813 -0.19300401 -0.87123609
11.340006 -52.084305 102.30863 0.32131624 -0.21954767 -0.92117029
-71.730652 -47.106426 60.280922 0.44164059 -0.21568124 -0.8708818
-63.671764 -47.329315 64.51825 0.44074976 -0.21050663 -0.87259763
-39.728699 -48.299515 76.858994 0.43752876 -0.2369519 -0.86742288
-28.379744 -47.269115 82.249512 0.40517119 -0.21917517 -0.88758016
-18.989885 -49.399826 87.197433 0.42449915 -0.23535573 -0.87430435
-73.833946 -43.412357 58.541962 0.43628213 -0.20657983 -0.87577546
-48.613071 -45.849895 71.779488 0.43698695 -0.22650133 -0.87048239
-44.842438 -46.793369 73.909546 0.42964497 -0.23995702 -0.87053192
-35.72731 -49.854668 79.304489 0.44650364 -0.22910203 -0.86495477
-2.2912111 -49.237968 95.496483 0.41780645 -0.18948039 -0.88855779
5.1879926 -49.52187 99.007523 0.41642126 -0.23998041 -0.87692803
6.0900617 -51.734795 100.27443 0.40419054 -0.21777534 -0.88837153
8.3087759 -51.288918 100.99274 0.36137569 -0.23146187 -0.90323478
-65.174057 -43.803192 62.920628 0.4461478 -0.23184301 -0.8644079
-58.607895 -44.069576 66.337257 0.44294584 -0.22341631 -0.86826503
-36.364399 -45.124676 77.767487 0.44620308 -0.23651168 -0.86311352
-8.1574459 -45.006432 91.524597 0.44614485 -0.21724249 -0.86819375
16.785488 -49.59861 102.82798 0.20508391 -0.235199 -0.95006418
-11.622309 -47.197727 90.297417 0.42957765 -0.21806026 -0.8763063
-3.5373728 -47.391808 94.674355 0.43322021 -0.21979928 -0.87407583
-1.9616429 -46.842766 94.989304 0.41728753 -0.22384413 -0.88077515
-71.219994 -41.555916 59.224335 0.42169234 -0.22769403 -0.87768501
-67.598694 -40.648758 60.689312 0.4400785 -0.22366926 -0.8696568
-33.340561 -46.774441 79.776382 0.43838909 -0.23510818 -0.86749017
-19.315779 -44.826923 85.797348 0.42986619 -0.21273732 -0.8774724
1.4387728 -50.002739 97.445412 0.41651562 -0.22089219 -0.88188511
26.154837 -52.494835 103.71748 -0.28455877 -0.083933204 -0.95497727
-63.433357 -37.605209 62.12516 0.43808091 -0.2245623 -0.87043482
-47.067551 -41.663261 71.418655 0.42682284 -0.2337873 -0.87359357
8.9182978 -47.33329 100.28063 0.37095043 -0.20717977 -0.90524703
14.186415 -47.321232 102.05711 0.26667026 -0.2181555 -0.93877321
-61.796997 -40.487202 63.678795 0.43731377 -0.24010766 -0.8666631
-41.653919 -41.917747 74.126846 0.43019673 -0.2345168 -0.87174118
-15.334192 -45.582676 88.022537 0.43704802 -0.20708424 -0.87527424
-3.5833521 -43.941116 93.412003 0.42275977 -0.23616903 -0.8749277
-57.214634 -41.279026 66.273163 0.45010853 -0.23641005 -0.86111122
-29.699715 -43.607372 80.764542 0.41943368 -0.25312147 -0.8717826
-17.444723 -41.064312 86.091698 0.42946059 -0.24043843 -0.87049001
4.4949026 -45.585159 97.732773 0.42020673 -0.19019774 -0.88727176
10.372862 -42.184784 99.71785 0.33351812 -0.22223803 -0.91617465
-38.245598 -42.533775 76.049889 0.445611 -0.24496888 -0.86105818
-11.213276 -41.863754 89.129204 0.42985982 -0.21670316 -0.87650454
0.61342716 -41.913536 94.96376 0.43426156 -0.20651305 -0.87679487
4.1355176 -42.829983 97.163857 0.42441058 -0.21836312 -0.87874526
8.6725092 -42.953671 99.10421 0.38905773 -0.22569124 -0.89313912
-59.219418 -36.334034 63.848862 0.4426344 -0.22827984 -0.86715806
-53.134441 -41.649353 68.486519 0.43274024 -0.22434974 -0.87315696
-42.606503 -36.722324 72.371056 0.41172805 -0.24962646 -0.87645119
-24.081999 -42.376167 83.020508 0.4160946 -0.23729298 -0.87781394
-7.5182037 -40.511475 90.599159 0.43371272 -0.21455351 -0.87513435
-50.022808 -38.702652 69.173256 0.42561519 -0.24449046 -0.87124968
-39.255005 -38.264374 74.284103 0.4255465 -0.25224292 -0.86907053
-33.836151 -39.126648 77.335274 0.4312129 -0.25613597 -0.86512989
-14.102762 -42.318821 87.866386 0.42861792 -0.23204701 -0.8731786
20.619919 -42.119896 101.39789 0.073918976 -0.20045623 -0.97691011
-67.078751 -34.287373 59.512154 0.4399994 -0.2202457 -0.87057018
-54.61319 -38.019196 66.785545 0.44063655 -0.24056987 -0.86485004
-28.373598 -38.068382 79.574898 0.42374232 -0.26088265 -0.86739993
-19.551939 -41.332481 84.875427 0.43434963 -0.2324075 -0.8702454
-80.795998 -31.86104 51.986065 0.43132621 -0.22394677 -0.87395972
-76.814278 -34.276871 54.597378 0.43376631 -0.23491094 -0.86986417
-72.169189 -32.130985 56.337582 0.43858093 -0.24194129 -0.86551207
-18.487553 -37.129601 84.14949 0.4146941 -0.25976437 -0.87209594
-54.66964 -33.383217 65.413628 0.42530534 -0.24740534 -0.87057793
-45.562565 -36.760277 70.877853 0.43463635 -0.23795894 -0.86860055
-29.415079 -34.4254 78.034248 0.42389551 -0.23194724 -0.87550735
-21.483253 -37.171471 82.828583 0.41553465 -0.24986671 -0.87458426
-11.848581 -38.003078 87.988831 0.45017916 -0.22987266 -0.8628425
-0.19305219 -38.827347 94.211571 0.41535011 -0.22142074 -0.88230217
4.1613255 -38.888306 95.867073 0.40637541 -0.22468822 -0.88564909
-59.937222 -31.66671 62.375278 0.43025875 -0.22579345 -0.87401074
-63.65979 -33.227486 60.872417 0.42890492 -0.2147505 -0.87745243
-49.575729 -32.088295 67.503288 0.43003514 -0.25362316 -0.8664555
-35.611595 -36.721645 75.667549 0.44391212 -0.24028499 -0.86325258
-15.559833 -37.120567 85.4804 0.44168928 -0.25340578 -0.86063707
-3.110528 -39.98597 92.811752 0.44866809 -0.2094702 -0.86880326
16.251719 -39.136307 100.70807 0.31684658 -0.19618289 -0.92796582
-32.992558 -33.512589 76.12809 0.42715749 -0.2329652 -0.8736496
6.466434 -38.546078 96.992104 0.40267429 -0.24280006 -0.88255399
7.9894791 -35.431042 96.730431 0.41292238 -0.1994472 -0.88865966
-81.193764 -26.79039 50.549919 0.42544124 -0.22892573 -0.87555277
-76.876556 -28.515877 52.896175 0.42111969 -0.23550524 -0.87589693
-37.267654 -31.903952 73.594055 0.44117832 -0.22243677 -0.86941564
-25.694275 -33.165302 79.643112 0.43120438 -0.22859022 -0.87281686
-24.17087 -36.493526 81.272667 0.43478471 -0.24379747 -0.86690539
-14.228193 -33.855858 85.42485 0.44641298 -0.24876146 -0.85955405
-1.504459 -35.898441 92.402817 0.44629395 -0.25213799 -0.85863155
-64.036942 -29.215858 59.766689 0.43191656 -0.26303333 -0.86270589
-44.875381 -32.374165 69.935059 0.42448321 -0.25431472 -0.86898673
-40.269764 -33.618191 72.425446 0.43184912 -0.23751003 -0.87011218
-7.9979515 -35.761707 89.209801 0.43151838 -0.25824094 -0.86435145
4.9326391 -34.61557 95.289604 0.39355066 -0.20873921 -0.89529085
-67.580742 -27.803312 57.428841 0.43471345 -0.25925481 -0.86244494
-17.827061 -32.222992 83.138962 0.42847353 -0.22388773 -0.87537688
-30.751411 -30.099154 76.370033 0.43259972 -0.23111248 -0.87146115
-21.702765 -32.741413 81.420914 0.42073932 -0.24084979 -0.87462544
-10.93649 -32.300571 86.548645 0.42176795 -0.26688892 -0.86653453
-4.9950404 -31.256609 89.307198 0.44540939 -0.25495332 -0.85825938
2.6057923 -34.118061 94.029228 0.42817459 -0.24315608 -0.87036872
11.303958 -35.817146 98.408096 0.33269721 -0.21644063 -0.91785949
-77.494331 -24.826986 51.755009 0.41221744 -0.25098678 -0.87583244
-37.320465 -28.332214 72.615135 0.42161322 -0.2525185 -0.87090564
-0.513147 -33.42942 92.412514 0.42641422 -0.26777357 -0.86398393
-72.662621 -27.761496 54.783272 0.4297199 -0.23634358 -0.87148291
-53.23848 -28.3867 64.560524 0.42068085 -0.24998224 -0.87208748
-43.441895 -27.76836 69.304451 0.43755817 -0.23658587 -0.86750787
-63.287304 -23.643278 58.054798 0.42121106 -0.28384134 -0.86140311
-49.330482 -28.048075 66.445984 0.43640614 -0.24330799 -0.86622792
-14.066257 -29.318502 84.271698 0.43004915 -0.24367075 -0.86929989
-8.512289 -31.644831 87.525963 0.43857428 -0.24464665 -0.86475468
4.5078983 -30.863718 94.348221 0.44664264 -0.26360577 -0.85499835
-47.293056 -25.27265 66.70121 0.43484887 -0.2375292 -0.86861175
-40.397312 -25.944107 70.495613 0.4355475 -0.24443741 -0.86634213
-59.955509 -26.968643 60.969429 0.43015432 -0.28046948 -0.85808164
-56.129791 -25.134716 62.304726 0.41848525 -0.28047112 -0.86383212
-25.489292 -28.921776 78.593651 0.41123465 -0.24580881 -0.87776077
8.765377 -31.867222 96.602509 0.44207829 -0.24402268 -0.86314523
11.48785 -31.199047 97.641777 0.32439864 -0.2281747 -0.91798794
-19.297146 -26.971342 81.13073 0.42793825 -0.24509257 -0.86994165
6.8562918 -30.366617 95.034286 0.3980341 -0.28434888 -0.87218952
-21.892347 -28.24398 80.039642 0.43304735 -0.2473436 -0.86677057
10.253847 -28.915651 96.048187 0.39378673 -0.28671101 -0.87334347
-35.179977 -24.701658 72.516418 0.43806612 -0.25487411 -0.86205405
-15.871509 -26.640869 82.582565 0.39846599 -0.28603056 -0.87144214
0.46620196 -30.079475 91.546371 0.445674 -0.27752477 -0.85109031
2.4093766 -26.748365 91.601776 0.42038897 -0.30205485 -0.855591
-53.682796 -21.99824 62.147884 0.40734389 -0.35977465 -0.83942431
-28.477749 -25.052574 76.118141 0.40566328 -0.27042004 -0.8731038
-7.8372979 -28.039833 86.98867 0.42859411 -0.24046199 -0.87091053
-50.532127 -22.784843 64.428497 0.43960905 -0.25612229 -0.8608979
-2.6179969 -27.054571 89.20414 0.41795483 -0.27395648 -0.86617637
12.612891 -26.160587 96.27449 0.37467191 -0.33343661 -0.86512488
6.7566547 -64.560539 -111.66433 0.38680691 0.31156167 -0.86793417
87.157402 -65.464867 -70.956879 0.52633184 0.079868913 -0.84651983
30.588165 -53.542568 103.23608 -0.21510769 -0.14432263 -0.96586728
27.106565 -49.654781 103.84406 -0.11545449 -0.016053513 -0.99318308
20.155779 -58.878136 105.43063 0.09620104 -0.16624215 -0.98138112
17.648386 -54.290237 104.33356 0.2191458 -0.20139343 -0.95468104
13.655918 -49.742374 102.60713 0.19673955 -0.23196746 -0.95261991
19.174238 -40.144993 101.87518 0.10817581 -0.13133688 -0.98541802
20.950058 -34.285561 100.36056 -0.082234792 -0.21537852 -0.97306192
15.145553 -27.675659 98.218651 0.41867736 -0.29034945 -0.86046875
18.655529 -58.36887 105.39445 0.15394777 -0.14330171 -0.97763216
16.236973 -35.007103 99.625496 0.33011892 -0.17751728 -0.92709714
-96.852379 -20.801287 34.712318 0.85091102 -0.20253666 -0.48469517
-97.227371 -17.688072 32.705322 0.87988693 -0.20829794 -0.42709613
-98.668159 -16.803019 28.531212 0.9250868 -0.21850726 -0.31059459
-93.057358 -17.968866 39.069679 0.73375124 -0.22722585 -0.64029485
-90.669052 -17.112104 41.205135 0.67350847 -0.22285967 -0.70478362
-99.147568 -15.432326 26.036369 0.93070751 -0.31195679 -0.19096187
-100.17466 -16.653975 18.396452 0.90021551 -0.42416209 0.098482147
-96.603516 -14.758133 32.534061 0.84633952 -0.30252692 -0.4383913
-94.84333 -17.645832 36.567554 0.81071138 -0.22148056 -0.54193479
-100.02404 -16.379728 22.120466 0.95938146 -0.26916623 -0.084478885
-97.767868 -13.973374 28.87505 0.87399703 -0.40318289 -0.27124268
-98.854797 -14.670013 22.382153 0.75537378 -0.65441644 0.033906497
-93.441887 -13.301582 36.773922 0.75384212 -0.32157159 -0.57298672
-90.543091 -13.998226 40.388321 0.6278615 -0.34876788 -0.69580954
-87.813202 -17.140858 43.523605 0.57595098 -0.26971918 -0.77170724
-96.213654 -13.052572 30.937527 0.76454258 -0.52492255 -0.37407342
-89.537094 -12.667558 39.786812 0.50086051 -0.6413725 -0.5811885
-86.38266 -14.144071 43.787201 0.49580339 -0.32706308 -0.80449289
-83.239548 -13.741189 44.64217 0.39094138 -0.47042799 -0.79111469
-83.410103 -63.184013 58.478058 0.43860859 -0.19206144 -0.87791508
-81.98243 -59.339489 58.599148 0.43684343 -0.17252834 -0.88283736
-85.568138 -59.113113 56.412018 0.47463584 -0.1978379 -0.85766017
-86.005333 -55.209675 55.516407 0.46912536 -0.2294448 -0.85280508
-82.06321 -56.460339 57.830551 0.4229669 -0.23897369 -0.87406558
-78.32061 -56.293972 59.345192 0.41401187 -0.21851709 -0.883654
-34.844158 -67.635956 85.123146 0.39381328 -0.40212366 -0.82656378
-36.03857 -64.668533 83.11042 0.41530845 -0.30449894 -0.85720438
-0.35126111 -68.452156 101.70248 0.41234583 -0.32467636 -0.85120863
-83.823807 -38.326141 52.104416 0.42113188 -0.23571539 -0.87583458
-93.06794 -24.426077 41.10685 0.68622768 -0.22153464 -0.69283044
-90.252686 -23.153805 43.206161 0.66585785 -0.22986265 -0.70978624
-94.637131 -22.131899 38.552204 0.77546805 -0.21445192 -0.59385151
-92.081543 -21.113033 41.018375 0.68011516 -0.207075 -0.7032519
-83.926262 -22.107277 47.851536 0.43063465 -0.26198393 -0.86366564
-85.919121 -19.759775 46.335011 0.50061923 -0.31304917 -0.80708152
-89.142555 -20.031319 43.305405 0.66032064 -0.22264205 -0.71722186
-73.36113 -23.73612 53.535488 0.42025688 -0.29766107 -0.85719424
-79.152229 -21.776579 50.106834 0.40599549 -0.28867573 -0.86708361
-74.598198 -21.683346 51.793049 0.38590133 -0.2818906 -0.87841773
-81.132965 -19.605059 48.014587 0.42239463 -0.29565519 -0.85683763
-57.90089 -29.71711 62.84462 0.41462958 -0.25710577 -0.87291402
-67.869667 -21.87422 55.117714 0.42593354 -0.26125696 -0.86621326
-65.419968 -22.105368 56.732094 0.43362224 -0.2643604 -0.86144376
-61.199356 -24.047655 59.330219 0.43825796 -0.2838378 -0.85285759
-83.303978 -17.175085 46.216606 0.43947786 -0.33206299 -0.83462167
-71.597107 -22.503355 53.78315 0.40545803 -0.27555364 -0.87159282
-80.340347 -15.347846 47.469299 0.43309221 -0.35388574 -0.82897282
-76.489166 -17.156593 49.844872 0.40542224 -0.29529271 -0.86512142
-72.72448 -19.695766 52.067524 0.47113875 -0.27092668 -0.83942062
-56.854759 -21.101753 60.638973 0.42516515 -0.29650733 -0.85517126
-63.131226 -19.546322 57.049545 0.37720397 -0.34392694 -0.85990196
-77.614395 -14.575439 47.861496 0.33838156 -0.53408897 -0.77475601
-70.868156 -17.528379 52.724384 0.41543362 -0.29548028 -0.86029428
-73.165154 -16.060976 51.045193 0.40118498 -0.29792535 -0.86619341
-69.952583 -16.142761 51.973709 0.2252019 -0.64929086 -0.7264334
-64.301018 -17.945322 55.267368 0.19028322 -0.68718374 -0.70112109
-66.694397 -18.043993 54.869179 0.38537681 -0.38135394 -0.8402701
-58.92733 -20.115128 59.046513 0.38986355 -0.37103939 -0.84281439
-86.98954 -23.664204 46.579056 0.59054512 -0.23464261 -0.77213937
-85.704865 -68.695137 58.36713 0.44205868 -0.15703523 -0.88313311
-80.610558 -68.332581 61.033916 0.46611816 -0.1571397 -0.87065548
-80.124077 -66.173279 60.899731 0.44026452 -0.19886445 -0.87556845
-44.047485 -67.654045 80.208267 0.2328005 -0.93756342 -0.25841573
-46.159065 -65.81472 78.254013 0.42216694 -0.28056622 -0.86200792
-42.250328 -68.169594 81.338982 -0.0094243707 -0.98912197 0.14679499
-25.846327 -66.315392 88.590508 0.3955805 -0.2667667 -0.87883538
-23.31048 -67.620964 90.067024 0.41756612 -0.28585255 -0.86251199
-80.747108 -36.7244 53.211079 0.43953514 -0.22660212 -0.86917228
-18.337193 -67.643929 92.666191 0.42166069 -0.32720569 -0.84565866
-16.296383 -66.164474 93.052643 0.42602023 -0.27089888 -0.8632037
-10.531899 -63.985542 95.155167 0.42289343 -0.23778574 -0.87442505
-13.41737 -67.518539 94.974365 0.40450031 -0.35246676 -0.84388781
-9.6318674 -68.162483 97.745316 0.30419067 -0.71430391 -0.63026822
-8.7001114 -67.065735 96.952034 0.41034755 -0.35263962 -0.84098756
-2.8347943 -67.434273 99.986404 0.41236353 -0.34836584 -0.84178239
50.406422 -67.247215 95.728539 -0.50150794 -0.59961402 -0.62366086
47.246807 -67.321915 98.692451 -0.63262492 -0.3489283 -0.69140059
49.613964 -68.187927 97.075302 -0.029210996 -0.98332202 -0.17951185
57.677555 -66.500938 86.126976 -0.88731986 -0.22351013 -0.4033691
88.091812 -67.902817 23.063454 -0.18171002 -0.96373045 -0.19546141
92.378319 -68.200897 14.472177 -0.91176951 -0.091143183 -0.40046135
89.680725 -67.848366 20.278793 -0.41505554 -0.89150727 -0.18150409
92.973282 -65.543571 12.512771 -0.87764364 -0.17742658 -0.44526553
110.69537 -68.229179 -37.117855 -0.95202035 -0.2675333 0.14860472
111.31023 -67.065216 -19.167322 0.81262159 -0.56375831 0.14772494
43.506535 -68.305489 101.22704 -0.52673405 -0.19925646 -0.82634622
48.192398 -65.649391 97.269585 -0.63816726 -0.2611827 -0.72424173
91.214279 -68.144371 17.109594 -0.69540566 -0.63143885 -0.34306845
12.078347 -68.518692 106.73443 0.18822812 -0.33786505 -0.92218071
32.482437 -67.915375 106.23151 -0.26597482 -0.21429613 -0.93985879
40.929104 -68.299942 102.95019 -0.42891386 -0.21642555 -0.87703645
29.779224 -65.804237 106.28719 -0.20419551 -0.11203439 -0.97249806
36.748875 -67.974983 104.52007 -0.36814776 -0.18915293 -0.91032326
52.437542 -67.540794 94.716774 0.47493294 -0.79034752 0.38702664
55.148369 -67.484558 90.736534 -0.80616605 -0.1803287 -0.56354052
57.406773 -68.363022 87.786903 -0.82754457 -0.22014615 -0.51643544
-89.139084 -56.395893 53.66724 0.49261346 -0.22004721 -0.84196866
-88.026871 -50.016403 52.721359 0.49740633 -0.2266375 -0.83739024
-110.04613 -61.732788 7.1471829 -0.9319393 0.21938178 -0.28872269
56.420132 -69.452362 89.281998 -0.80301148 -0.082722008 -0.59019452
-90.059052 -62.495712 55.034611 0.46844393 -0.21700381 -0.85642838
-99.807961 -62.192303 46.335777 0.74602592 -0.21740766 -0.62942779
-92.66996 -59.864262 52.592773 0.59152162 -0.22370148 -0.77463526
-96.10434 -57.665943 48.796059 0.68355942 -0.2280442 -0.69335586
8.4070454 -60.889721 103.44154 0.34382483 -0.24677168 -0.90602881
10.964833 -65.364967 105.23425 0.23760408 -0.2561866 -0.93697
-89.379349 -53.279991 52.770866 0.51702064 -0.23438556 -0.82325751
-100.92612 -42.43956 37.002087 0.83906841 -0.23420912 -0.49102974
-97.814445 -38.097717 40.098679 0.79658604 -0.21586253 -0.56467175
-96.458801 -34.937321 40.708881 0.76331073 -0.21530586 -0.60909784
-94.538101 -36.691959 43.378437 0.69883579 -0.22296965 -0.67964196
-94.780441 -31.676435 41.485493 0.71881568 -0.21109989 -0.66237509
-91.94812 -35.782581 45.702263 0.69109619 -0.2258472 -0.68657064
-100.69511 -21.586208 24.83222 0.96488601 -0.19886419 -0.17160423
-100.89706 -20.367298 19.47007 0.98176646 -0.18978986 0.01069735
-100.0909 -19.787924 12.960838 0.95328665 -0.2278835 0.19827656
-101.01433 -22.094784 14.739401 0.97483873 -0.1876844 0.12026623
-100.90038 -21.316347 22.461004 0.98202157 -0.17268805 -0.07624004
-98.117928 -22.791101 5.1633358 0.89080894 -0.22308652 0.39584321
-95.971664 -22.206923 1.2262821 0.8588171 -0.28093332 0.42838043
-96.99791 -19.81049 5.1772008 0.80786693 -0.38725287 0.44428158
-99.484192 -18.501432 11.51263 0.8675409 -0.419146 0.2677488
-100.20103 -18.320482 15.870919 0.94772911 -0.28857046 0.13614921
-98.655434 -19.295809 8.6755629 0.8725698 -0.30268499 0.38341069
-97.95237 -18.546898 8.5225086 0.64947349 -0.67259425 0.35468456
-99.075142 -16.638525 15.054894 0.72259569 -0.64922786 0.23739992
-104.20872 -67.905533 42.694675 0.82464081 -0.21217412 -0.52435648
-103.22596 -64.720589 42.951496 0.80688965 -0.20864157 -0.55262804
-103.69614 -61.04406 40.744598 0.85494965 -0.21395388 -0.47253022
-107.88129 -62.645744 31.917164 0.93479335 -0.23363529 -0.26753694
-105.9004 -62.348396 36.9646 0.89591771 -0.20332292 -0.39495739
-105.23386 -57.472908 36.05159 0.89836717 -0.20987159 -0.38586318
-100.09498 -55.613304 43.65329 0.77759576 -0.22334005 -0.58776194
-101.96151 -59.254333 42.634502 0.80391294 -0.22614828 -0.55007356
-105.32265 -52.889977 33.140884 0.91520965 -0.19207831 -0.35425588
-97.601822 -53.833317 45.805645 0.71375775 -0.22968937 -0.661659
-103.33707 -53.448353 37.856327 0.85280448 -0.20074125 -0.48210728
-100.9267 -51.265057 40.907333 0.80923903 -0.20763117 -0.54956478
-91.948265 -55.451458 51.947483 0.60729522 -0.23082002 -0.76020694
-95.792824 -51.379341 46.943325 0.68883282 -0.21823969 -0.69128913
-105.93629 -51.01487 30.113104 0.94599235 -0.21338245 -0.24406241
-97.976784 -48.52116 43.782558 0.74392992 -0.21779418 -0.63177055
-103.49833 -48.672398 35.822502 0.87501305 -0.21602179 -0.43322822
-92.011429 -49.054779 49.801601 0.62202746 -0.2013927 -0.75665241
-103.52134 -46.034389 33.749302 0.91310567 -0.24798466 -0.32363805
-100.44366 -46.814972 39.812206 0.80257022 -0.23562463 -0.54805303
-105.46741 -47.550148 28.422306 0.95177221 -0.21392837 -0.21991898
-95.124405 -44.956444 45.61385 0.69852495 -0.23986261 -0.67418748
-94.794556 -46.094719 46.573391 0.66152126 -0.22765437 -0.71453702
-103.58672 -43.426609 31.817022 0.91959536 -0.2116555 -0.33097774
-91.336639 -46.15443 50.336437 0.58960855 -0.19933324 -0.78270555
-97.610931 -44.356209 42.717884 0.77076393 -0.22889358 -0.59458452
-91.939789 -44.988316 48.474274 0.69834548 -0.2439343 -0.67291129
-101.43007 -40.014965 35.110229 0.86362928 -0.21353476 -0.45666984
-95.359772 -40.228706 43.732536 0.70406765 -0.22750789 -0.67270273
-90.040543 -42.154198 49.671993 0.59713149 -0.22267018 -0.7706179
-87.310593 -45.193031 52.026165 0.45835644 -0.20818536 -0.86404186
-86.193764 -40.420856 51.696518 0.45791727 -0.20903641 -0.86406916
-102.33109 -38.900894 32.345997 0.90892017 -0.22003232 -0.35418913
-92.167221 -40.582397 46.994598 0.69823736 -0.20895825 -0.68469054
-99.136238 -36.057007 37.250343 0.84417295 -0.21087517 -0.49285242
-102.24751 -36.32346 30.514393 0.94260132 -0.2048049 -0.26373795
-89.19976 -37.851162 49.259365 0.61374635 -0.2272203 -0.75609946
5.1957021 -65.212334 103.1159 0.41647854 -0.25499338 -0.87265348
7.6785617 -65.857765 104.59631 0.32693738 -0.25849235 -0.90900701
-86.692337 -36.131519 50.124599 0.4466067 -0.23186819 -0.86416411
-100.97665 -33.138264 32.524143 0.90536582 -0.18737142 -0.3810572
-88.863686 -33.770725 48.116165 0.62916851 -0.23277548 -0.74159461
-99.716225 -31.226686 34.131035 0.85767913 -0.21951956 -0.4649705
-82.836906 -33.341915 51.29541 0.42127302 -0.21895266 -0.88010722
-86.337044 -32.597404 49.57357 0.45898378 -0.21899973 -0.86103022
-97.82235 -27.395336 35.692982 0.85586768 -0.21683466 -0.46954575
-90.232666 -31.867376 45.977394 0.68375111 -0.22027157 -0.69567579
-92.53199 -27.950504 42.676884 0.67794973 -0.21703051 -0.70234036
-87.489372 -27.737595 47.551334 0.58898991 -0.23339757 -0.77370304
-96.975822 -29.472826 38.082027 0.80646038 -0.21063857 -0.55249703
-94.567787 -28.08003 40.702061 0.74026191 -0.20376848 -0.64069551
-99.621063 -22.087835 29.463036 0.91791493 -0.2081783 -0.33777818
-96.503914 -24.870495 36.845795 0.83149773 -0.21180637 -0.51356554
-99.802826 -26.048481 31.219069 0.89037263 -0.22422098 -0.3961837
-98.082619 -23.913185 33.751862 0.8712588 -0.20618899 -0.44541466
-93.752846 -57.697636 50.830349 0.65762383 -0.21803145 -0.72110558
-104.97125 -40.819496 9.1002712 0 0 0
-101.36708 -66.801353 46.073139 0.75228328 -0.20890358 -0.62484324
-92.717255 -63.991535 53.643833 0.60540706 -0.19642082 -0.77129835
-98.59787 -57.926155 46.369026 0.7319153 -0.22791107 -0.64214987
-52.669842 -46.179291 -96.959618 0.81062692 -0.2211896 0.54218006
-51.584778 -47.732101 -98.919991 0.74656945 -0.21408373 0.62992233
-54.987049 -45.500835 -93.017555 0.85046953 -0.182311 0.49342096
-57.355782 -41.618889 -86.191849 0.89648205 -0.17373306 0.40759885
-54.750813 -38.510593 -90.384659 0.87767196 -0.22585867 0.42270517
-56.809071 -38.043915 -85.754128 0.89124012 -0.20434244 0.40488923
-60.930805 -37.983776 -76.739365 0.86447382 -0.21500392 0.45437679
-61.822319 -36.981758 -74.285072 0.88964403 -0.20925146 0.40589103
-62.961708 -33.791004 -70.575676 0.88585347 -0.18701825 0.42460319
-58.734119 -33.833603 -79.148506 0.87961084 -0.20891917 0.4273611
-80.990532 -27.818476 -31.594706 0.88611156 -0.17239714 0.4302156
-68.269913 -30.97879 -58.009384 0.88049674 -0.18470503 0.43658838
-66.745491 -27.629187 -60.094193 0.88196439 -0.19844221 0.42750388
-81.053596 -23.369614 -29.337105 0.88142508 -0.19707969 0.42924276
-75.00988 -27.560543 -43.43182 0.87686968 -0.19783849 0.43813175
-78.369377 -23.786293 -35.116444 0.87517309 -0.19861184 0.44116369
-83.792931 -23.08478 -23.819061 0.88769764 -0.21060628 0.40943602
-91.302361 -21.63176 -8.0487528 0.87355798 -0.19852866 0.44439027
-86.426125 -23.340666 -18.254971 0.86730617 -0.19827878 0.45658028
-69.598518 -23.920849 -52.597202 0.87487954 -0.20254637 0.43995547
