# .PCD v0.7 - Point Cloud Data file format
VERSION 0.7
FIELDS x y z normal_x normal_y normal_z
SIZE 4 4 4 4 4 4
TYPE F F F F F F
COUNT 1 1 1 1 1 1
WIDTH 720
HEIGHT 1
VIEWPOINT 0 0 0 1 0 0 0
POINTS 720
DATA ascii
43.301735 8.6717005 25.497877 0.014123253 0.99956626 0.025840584
40.013866 8.3211756 22.400826 -0.10033372 0.99150908 -0.082721591
42.783775 7.8837781 -1.873512 -0.0027703266 0.99535805 0.096200861
41.792744 8.3732958 6.383604 -0.0064660404 0.99674672 0.080337666
37.865662 7.6297655 22.658991 -0.039080773 0.99820542 -0.045371342
37.928551 8.0411615 -2.1707716 -0.042653464 0.99255246 0.11410741
35.81332 7.7430019 19.953415 0.030223925 0.99935549 -0.019368056
39.159573 8.1609125 -6.0038662 -0.054807078 0.99769133 -0.040102579
32.828014 7.641263 26.296959 -0.050976209 0.99830741 0.027996862
47.655384 7.934072 -51.246822 0.24951904 0.9183023 -0.30734539
44.794765 8.7580719 -48.148556 0.04023261 0.99840051 -0.039720699
35.625725 7.9520912 4.814301 -0.029437335 0.99956393 0.0023186014
31.094172 7.5703483 5.9146423 -0.0083083156 0.99681497 0.079315372
31.124699 7.5162096 11.726856 -0.0184863 0.99982691 -0.0020925952
27.469807 7.517591 10.760389 0.011865758 0.99837208 0.055788338
26.53936 7.1690373 14.794653 0.0065989485 0.99737012 -0.072175905
26.110508 7.8339734 18.684866 -0.056913707 0.99693453 0.053688306
37.636986 8.6524944 -44.959805 0.0046849218 0.9997226 0.023084207
37.567863 8.2893467 -40.879021 -0.024600035 0.99938387 -0.02503565
31.049496 8.0512953 3.9389901 -0.035182621 0.9989931 -0.027835265
22.838026 7.3673129 13.229575 0.1353378 0.97696036 -0.16502161
33.796268 8.7404871 -47.624485 -0.02187706 0.99976069 -0.00016959624
26.091795 7.6156464 4.6223211 -0.00035703974 0.99998677 -0.0051293252
33.94508 8.5898838 -39.509312 -0.017755779 0.99981087 0.0079343431
24.716139 7.822464 8.295929 0.034762986 0.99937814 -0.0059090867
30.096201 8.4106665 -43.764423 -0.014131072 0.99976426 0.016484583
28.76473 8.425375 -37.674801 -0.0079882815 0.99980778 0.017905841
34.291607 6.526032 -63.410275 0.31338966 0.78734404 -0.53092021
18.529015 7.682199 4.4679227 -0.018220667 0.99977446 -0.010908715
16.67063 7.6076465 10.190721 -0.02512865 0.99942786 -0.022639386
32.295433 7.707572 -61.883331 0.16618921 0.91059762 -0.37840864
29.862221 8.7237616 -50.320293 0.015648544 0.99963856 0.02186054
20.436237 8.060998 7.260046 -0.039628863 0.9987663 0.029921779
18.67802 8.4717598 13.707647 -0.0007593903 0.99910218 -0.042358253
25.176928 8.6339741 -48.496681 0.0093446029 0.99938762 0.033720661
14.511233 7.7138429 1.8007048 -0.049145956 0.99755955 0.049594074
-8.5329752 7.9318242 -18.083574 0.033559393 0.9993695 -0.011594036
-12.350155 7.5756493 -25.715246 0.045757644 0.99213469 0.11651237
-15.606421 7.6852288 -21.193726 0.028217999 0.99957019 -0.0079452312
-13.621952 7.7785702 -23.876623 0.023505401 0.99971539 0.0040895338
-14.012474 7.9422827 -11.53083 -0.034788776 0.99909043 0.024659336
-12.612472 7.8318429 -7.3113632 -0.032645483 0.99805778 0.053055499
-15.350701 7.8293505 -13.838639 -0.010881006 0.9998529 0.013259672
-17.447298 7.4101338 -6.1467614 -0.08404202 0.99417883 -0.067418858
-16.280941 8.0948038 -28.59226 0.0018678602 0.9992795 0.037909381
-17.224033 7.8080702 -9.8452034 -0.061915644 0.9962725 0.060063671
-19.729971 7.3576517 -9.8797407 0.0086438395 0.99911773 0.04109766
-20.159622 8.0096455 -15.485298 -0.038689256 0.99807233 0.048525892
-19.821707 7.988759 -31.561577 -0.017558474 0.99940675 0.02962989
44.513504 7.426784 53.129677 -0.12623967 0.98940134 -0.071754023
-24.634295 7.8469534 -11.066728 0.041747905 0.99871528 0.028720045
-22.418634 7.6303496 -5.4926715 0.02338017 0.99967337 0.010324327
-23.40593 7.6749582 -18.404701 -0.013661047 0.9996655 0.021958767
-23.645906 7.922914 -14.110558 0.016523067 0.99968314 0.018989198
-22.328434 8.5884047 -47.003632 -0.012213634 0.99945998 0.030505413
29.131994 7.5081167 59.85532 0.041838299 0.99771202 0.053106293
25.402529 7.2108459 64.285965 0.016356202 0.99833888 0.055243541
-23.394819 8.8731728 -51.765934 -0.015874619 0.99984097 0.008127084
22.477081 7.637352 59.563824 -0.029722244 0.99905175 0.031814996
19.591087 7.4519553 49.180862 0.0033580062 0.99999267 -0.0018463084
17.629461 7.4351563 58.000122 -0.010148988 0.99947882 0.03064334
18.608931 7.3925056 44.721706 0.0028387869 0.99984938 -0.017119603
16.877958 7.4417992 52.248646 -0.011507913 0.999933 -0.0012936065
15.27389 7.5450392 46.22916 -0.010052168 0.99991244 -0.0086075934
13.87664 7.4237294 54.704605 -0.0085150208 0.99996161 -0.0020681792
11.87432 7.3340535 44.997627 -0.013194821 0.99989754 -0.0055536306
10.444442 7.3279877 38.991844 -0.0013034645 0.99999851 0.0010946039
-28.05101 7.9465108 -19.057461 0.029033657 0.9995029 0.012285899
5.3164902 6.30161 10.251259 0.093003854 0.94877267 -0.30196127
-25.615906 8.5926695 -43.933792 -0.059848096 0.99802643 0.019015698
4.1602311 7.6367645 9.2305393 0.28570601 0.95656824 -0.057872817
-25.880653 8.425828 -36.797215 -0.017697982 0.99878061 0.046087265
-25.280739 8.0881243 -21.619194 -0.0015688991 0.99919546 0.040074103
2.8558667 7.1635199 6.3677831 -0.089572415 0.98840797 -0.12258245
2.8246219 8.4860296 12.260631 0.51171815 0.85905856 0.012767293
-30.901751 8.1783838 -25.926146 -0.021104064 0.99958223 0.019749667
-159.94695 -94.701019 132.869 0.64293504 0.75208372 -0.14492993
-28.180723 8.3171034 -28.110552 0.011934103 0.99992651 -0.0021097041
-26.635376 8.1240692 -40.87989 -0.058607098 0.99793881 0.026138661
-29.810898 7.9196639 -22.162035 0.033959016 0.99920809 0.020733329
-6.4920168 7.7919235 -21.489468 0.0079769948 0.9995898 0.027505446
-30.664808 8.1172667 -28.73103 -0.044599902 0.99851018 -0.031437822
-32.115612 8.0278587 -32.34877 -0.0058004586 0.99969953 0.023816032
-32.931553 8.2828712 -22.767752 -0.013905256 0.99984127 -0.011137267
-27.78746 8.2801914 -46.910252 -0.063452356 0.99762046 0.026964474
-33.806076 7.9380684 -27.40633 -0.0056661116 0.99997473 0.0042962348
-35.074848 7.8687572 -24.341871 -0.00053090008 0.99954188 -0.030258698
-35.983532 8.2960529 -30.375187 0.021422924 0.9990921 0.036823422
-160.74951 -93.548332 139.82498 -0.20378368 0.95577228 0.21206483
-34.739666 8.0203676 -38.882919 0.045182925 0.99849468 0.03109202
-40.719833 8.4933462 -36.019283 0.0032235077 0.99935514 0.035760697
-40.698399 8.1217585 -29.794291 -0.0064343847 0.99928361 0.037293285
-44.909264 8.3873606 -33.105114 0.041921463 0.99899828 0.015654631
-41.88179 8.3683376 -33.49942 -0.008419184 0.99961883 0.026292173
-42.284641 8.3162212 -21.973547 -0.032114092 0.98919654 0.1430345
-45.934422 8.23207 -30.114122 0.064235426 0.99772465 0.020476328
-162.07733 -93.431198 136.97617 -0.073162824 0.98732853 0.14081752
-96.815933 -68.734276 99.191864 0.20430422 0.56900293 0.7965523
66.483208 7.8431959 29.294027 0.2715967 0.95674145 0.10431194
48.592937 7.8157668 35.14785 -0.052852828 0.99860001 -0.0021483074
48.115845 7.9035378 39.762852 -0.024621539 0.9991501 0.033057529
41.197044 7.6675582 51.077549 0.076234378 0.98179257 0.17398712
41.210941 7.8265033 36.165569 0.00096209726 0.99998021 -0.0062201084
40.957306 7.6503587 32.118824 -0.0080958847 0.9998948 0.012041386
37.200768 7.6147947 34.953716 -0.021597713 0.99976587 0.0012963891
34.332912 7.5758257 44.051018 -0.018732814 0.99981898 0.0033280293
41.755703 8.6448307 -44.6534 0.0064600655 0.99996758 -0.0048115449
37.134899 7.5842967 29.823259 -0.020719714 0.99935466 0.029341709
39.583031 8.5995951 -49.948769 -0.0044291914 0.99997556 -0.0054186382
32.539864 7.6190963 29.445618 -0.0067817611 0.99996102 0.0056508081
31.790655 7.6435432 17.32176 -0.017014328 0.99928129 -0.033872772
31.369617 7.5826178 54.586094 0.00050476432 0.99988878 0.014905083
28.581085 7.453126 38.32011 -0.0088747283 0.99990803 0.010256471
29.740126 7.6071463 23.085199 0.002030557 0.99959528 0.028376706
28.558674 8.0209684 17.452845 0.044815112 0.99699813 -0.063138321
27.007658 7.4692807 56.043316 0.0059943721 0.9995333 -0.029954618
24.605936 7.7433009 58.848404 0.016090777 0.99976176 0.014747154
-157.71959 -96.691498 129.10818 0.58276904 0.68257755 0.4409855
27.116922 7.3970127 52.421577 -0.010152424 0.99994397 -0.0030018894
22.399258 7.4715772 54.430019 0.002409403 0.9998157 -0.019049488
27.496765 8.4952517 -41.268635 -0.0031625885 0.99986362 0.01620893
19.443727 7.6997871 26.494753 -0.014769945 0.99987137 0.0062428406
23.331324 7.8433475 15.630778 0.0038165569 0.99974447 0.022276379
18.297966 7.3976698 36.938126 0.0012738886 0.99996531 0.008233672
21.647936 8.3090544 -36.342571 -0.012357346 0.99976021 0.018072652
17.579655 7.4545698 19.976194 0.010234497 0.99994683 -0.0012431769
16.098236 7.3444376 41.390305 -0.0034573262 0.99999058 0.0026488586
16.315962 7.3911448 28.908712 -0.025961932 0.99946111 0.020087423
15.015517 7.3411074 33.80677 -0.0065779248 0.99994767 -0.0078452788
13.258766 7.5444736 36.968578 -0.0070915497 0.99997455 0.00078916195
17.443497 8.3450327 -38.255074 -3.1096355e-05 0.99961424 0.027773492
8.763011 7.6059003 25.489857 0.019067168 0.99943542 -0.027664186
10.940843 7.3325934 34.249508 -0.010021258 0.99994922 0.0010840079
7.8861818 7.9403334 13.583307 -0.040761504 0.99495989 -0.091614701
7.8077421 7.2226429 21.537922 0.033255383 0.99934089 0.014557324
4.7800055 7.3605394 21.227713 0.0014092316 0.99996507 0.0082332985
4.0122929 7.0256314 11.767971 0.15953708 0.98465496 -0.070729353
-17.321426 7.9973316 -24.682051 0.048784364 0.99751794 0.050773885
-34.442848 8.1236744 -31.827345 0.088354357 0.99573177 0.026679987
-155.95808 -90.468407 138.91252 -0.41399601 0.86209178 0.29224136
-33.101425 8.1145163 -35.618443 -0.00029484555 0.99999428 0.003346846
5.6189737 7.1056447 65.938332 0.0021020931 0.99918842 0.0402257
5.3283038 7.3542385 52.241001 -0.0088404557 0.99995077 -0.0044993642
4.354095 7.3781037 60.016113 -0.015086862 0.99959666 0.024060726
2.6810474 7.3118696 47.103344 -0.021233419 0.99962229 0.017444028
0.55233574 7.2956653 57.653065 0.010097688 0.99992466 -0.0069777905
-2.166507 7.3478174 53.021824 0.029508568 0.9995364 -0.0075029628
-160.65283 -93.603638 128.43364 0.72041595 0.58032537 0.37976742
-80.302521 -37.781853 60.785561 -0.0079871202 0.98043078 -0.19670203
-78.782722 -36.905464 65.092072 -0.17387687 0.98431724 0.029774744
-155.03575 -93.188217 122.93121 0.50721043 0.54629761 0.6665557
71.516335 6.2568202 24.615065 0.49916828 0.85549903 0.13766809
68.339912 7.7870655 23.865755 0.2155755 0.97488403 0.055932596
68.146317 7.4235334 27.706806 0.32771084 0.93330902 0.14676489
38.346394 7.6804042 47.092201 -0.024014715 0.99971032 0.0016109435
37.979034 7.4943986 42.545208 -0.01821145 0.9998256 -0.0041396664
37.455383 7.3453951 55.356876 -0.019076049 0.99960417 0.020675581
34.658619 7.3153577 57.336937 0.011734745 0.999183 0.038672782
32.784893 7.4722304 47.229626 -0.0077872472 0.9999519 -0.0059521925
25.195646 7.5791416 28.998756 0.00031808901 0.99989992 0.014143455
26.355551 7.4146018 41.085056 -0.0067218146 0.9999578 0.0062679932
18.032877 7.0584617 64.222 0.026603939 0.99942154 0.021187097
14.636204 7.52914 61.864399 0.0077825887 0.99973708 0.021567596
15.746652 7.494626 24.330328 -0.038953066 0.99923724 -0.0027407904
10.860348 7.1052599 24.490717 -0.0038201343 0.99964935 -0.026202023
11.942747 7.4130268 20.921637 -0.030846547 0.99885458 0.036580335
14.028869 7.2708979 65.576378 -0.0026406376 0.99940836 0.034290127
11.089275 7.4372582 50.256447 -0.008007247 0.99990451 -0.011265566
10.638709 7.4117074 53.20018 -0.012006527 0.99983734 0.013458426
8.749218 7.249299 65.388832 -0.0056606159 0.99960613 0.027485745
8.192625 7.4520202 40.912804 0.0090737939 0.99995565 -0.0025080296
9.6621304 7.2782311 46.409245 7.3602576e-05 0.99999207 0.003982008
5.7230835 7.4160752 42.921238 0.0042567351 0.99994278 0.0098189265
9.8420048 7.3478904 59.838696 -0.011837039 0.99967647 0.022513963
10.634172 7.3398576 57.086414 -0.0087515526 0.99995881 -0.0023841294
5.9233985 7.3316307 48.141022 -0.0032524124 0.9999941 0.0011087622
6.5261617 7.3945441 29.957748 -0.023321157 0.99960625 0.015604613
7.4219689 7.4390063 60.901791 0.0062240213 0.999973 0.0039029543
3.0935099 7.3825378 54.408146 -0.010515677 0.99989146 -0.01031904
1.8794304 7.3744245 8.7818441 -0.068908475 0.97333211 -0.21880665
1.5955862 7.4312081 41.512318 -0.0050199274 0.99996346 0.0069142068
2.4545143 7.6381521 15.057959 0.12593244 0.99203551 0.0025809091
1.7721136 7.4175129 22.66445 -0.008392524 0.99932462 0.035775345
2.8292789 7.3757811 37.613865 -0.015051766 0.99988282 -0.0028058796
-2.4004681 7.4858103 20.1348 0.0096879192 0.99978369 0.018403925
5.1729364 7.6667023 17.822119 -0.00027972984 0.9997372 0.022920545
1.4060028 7.2006583 27.190273 0.010610241 0.99994266 0.0014380981
4.045177 7.3392787 33.388817 0.010359958 0.99989557 -0.010077494
0.094526425 7.4974585 30.881363 -0.018814532 0.99978757 0.0084123807
37.3908 7.4722791 51.631168 0.035286602 0.99929655 0.01269906
-9.5098658 7.1571827 61.834301 -0.016444387 0.99984437 0.0063964068
-163.30609 -92.398605 132.05061 0.5913226 0.77930802 0.20740452
-67.440056 -38.449841 69.759583 0.095313303 0.94123363 0.32402876
-144.43658 -97.295372 120.96017 0.52964538 -0.77965397 0.33408916
28.894438 7.486865 48.398354 -0.015287679 0.99986267 -0.0063876454
25.577066 7.4311943 46.346622 -0.0025835596 0.99999142 -0.0032398417
22.204212 7.4816828 47.483624 0.0025053928 0.99998099 -0.0056529962
-0.98207819 7.3825097 36.779305 -0.0012269194 0.99928433 -0.037805174
1.644502 7.3810592 62.257538 0.027482094 0.99962151 -0.0012014384
-3.5253274 7.3945479 38.316151 0.020136761 0.99975795 -0.0088652335
0.076726615 7.3522601 43.863579 -0.0037340454 0.99981427 0.018907871
1.0398066 7.1831141 50.279694 0.001160103 0.99999112 -0.0040644784
0.63437361 7.4443111 64.990036 0.027799062 0.9981733 0.053640977
3.2288849 6.9186502 68.813187 0.018005617 0.99979758 0.0089790178
-2.4869428 7.4678283 61.653442 0.0022771962 0.99999732 0.00014862976
-7.0180368 7.2104445 59.914963 -0.017790299 0.99978238 0.010888112
-98.513176 -69.451813 100.53425 -0.047458351 0.76520973 0.6420294
-152.87199 -92.586082 140.31541 0.52457833 0.076759398 0.84789479
-158.86847 -91.94339 124.69778 0.58663058 0.47974986 0.65246052
34.397053 7.6538229 52.166924 0.0060505443 0.99996418 0.0059107384
-153.40179 -97.689392 141.56854 0.53373104 -0.083245516 0.84154701
-66.591469 -59.600651 67.578369 0.67385739 -0.5584324 -0.48380727
-72.004166 -65.614784 77.08876 0.68242025 -0.73012358 -0.034958951
-111.76496 -89.591072 107.8828 0.53803635 -0.76076657 0.36297533
-125.575 -94.703545 115.5955 0.35047612 -0.92994797 0.11119025
-123.91139 -94.481445 109.79183 0.30295572 -0.9522084 0.038949054
-132.10217 -96.652534 116.29053 0.30372316 -0.94879669 0.086816855
-68.587433 -62.004555 74.527695 0.71833634 -0.69302332 -0.060923021
-71.455208 -64.089722 71.529442 0.58603388 -0.78646529 -0.19502956
-134.00275 -93.991249 100.3508 -0.22420633 -0.80745018 -0.54566991
-51.882786 -44.401314 64.056351 0.65228635 0.035181344 -0.75715566
-56.743286 -39.233932 59.247795 0.73014641 0.0410662 -0.68205553
-55.121082 -48.821667 60.371696 0.7016145 0.0073751775 -0.71251857
-136.20206 -83.372627 104.80302 0.51775837 0.39186186 0.76050681
63.065125 6.94839 40.49593 0.41936281 0.87228054 0.25151831
41.820084 7.6451869 60.066448 0.10263193 0.9785769 0.17847691
41.774494 7.5769739 55.703861 0.022530479 0.9943732 -0.10351006
-122.40592 -87.472931 102.2182 -0.39790353 0.91742617 0.0014085777
-126.86839 -88.57589 101.43008 -0.062316671 0.98964518 0.12930185
-130.6926 -88.903702 103.01009 0.15623011 0.91861749 0.36295176
-133.86215 -88.923622 110.89362 -0.11099491 0.99257541 -0.049741745
-133.99643 -89.297386 105.33027 0.27880117 0.80771297 0.51948994
-136.27818 -89.533127 116.01205 -0.11549056 0.97661197 -0.18135904
-131.64621 -82.630379 101.25954 0.50623155 0.41771516 0.75448233
-136.31541 -89.709152 107.41162 0.21971631 0.92373914 0.31373668
-141.41 -89.31424 111.48236 0.14793073 0.97407913 0.1711327
-141.47096 -89.456436 116.26569 -0.10366222 0.99448979 0.015628064
-144.50162 -90.253746 116.99828 0.055990115 0.9355883 0.34862524
-135.89803 -80.61599 102.3577 0.2140654 0.84877849 0.48347804
54.58942 7.4219928 49.842815 0.2410325 0.9439714 0.22543581
51.208851 7.7003512 46.000355 0.011075704 0.99976414 0.018684072
50.717476 7.4245658 51.480911 0.087683804 0.98949456 0.11494388
48.471916 7.6557379 53.627609 0.082999468 0.99414837 0.069139242
46.22496 7.3785329 57.784573 0.21156839 0.94903189 0.23361789
28.8599 7.1628785 63.678223 0.030233517 0.99839944 0.047797099
21.334768 7.1955261 64.096687 -0.021445232 0.99915606 0.035036117
-124.63181 -84.353699 119.70251 0.57170308 0.11663636 0.81212777
59.317596 7.6880302 41.128075 0.10927977 0.9897542 0.09189406
31.213844 6.9447956 68.126381 0.063999653 0.98543561 0.15754592
30.335894 5.4581509 71.959663 0.2359354 0.82060033 0.52052814
25.156792 7.1598067 69.599678 0.054747436 0.99040633 0.12687799
21.354513 4.4866529 76.617081 0.14647909 0.79262829 0.59184813
19.402069 6.9620357 71.766998 0.065725893 0.94514781 0.31996214
80.61544 -65.291405 32.607224 0.79925376 0.49114668 0.34636438
-113.08353 -76.605759 86.253899 0.65727556 -0.16930903 0.73438627
64.26532 -65.345001 59.174976 0.63755363 0.50408328 0.58260238
58.194134 -63.227226 63.343697 0.61574256 0.36454958 0.69854474
7.1802149 7.1181693 70.347031 -0.030577227 0.99953133 -0.0015107869
-73.907509 -37.445164 71.304176 0.10634902 0.98500037 0.13588257
-77.838661 -37.555077 72.705528 -0.078839272 0.95526135 0.28506154
-111.31377 -77.407875 84.899399 0.026850989 0.58669144 0.80936521
-81.960182 -37.966751 66.342247 -0.071096115 0.9973352 0.016365809
66.084412 0.99951708 48.488319 0.70194459 0.51963025 0.48709163
59.545162 6.9150462 45.553783 0.36355335 0.88920152 0.277758
59.822632 4.0993457 52.104439 0.51565957 0.73909253 0.43340218
50.802635 3.6816366 61.99522 0.46480069 0.69773775 0.5450893
52.857113 6.024982 55.693447 0.36591923 0.85328734 0.37148866
46.233952 5.8171196 61.934227 0.31611663 0.85532451 0.41047558
45.676228 3.0629869 66.722473 0.40637699 0.6885041 0.6006828
40.361462 5.7216291 66.196533 0.26595631 0.84033185 0.47234482
36.957375 7.4505205 63.088379 0.032831706 0.9916966 0.12433786
34.769337 6.9879432 66.71299 0.18150757 0.91803706 0.35250947
25.294714 2.367825 77.766319 0.25233281 0.6297158 0.73470145
14.654372 7.0526066 68.906273 0.0043455791 0.99938041 0.034925681
14.486122 7.0354595 73.393913 0.072169974 0.93327117 0.35184717
11.215788 7.1695218 71.779701 0.014279912 0.99987209 0.0072021582
8.0298958 4.7059541 78.570282 0.06050577 0.8194865 0.56989557
5.8968148 7.2054844 73.609818 0.022216175 0.97322661 0.22877161
9.7689991 0.8522715 82.254288 0.10379463 0.5543623 0.82577789
3.0883517 6.0324616 76.814194 -0.0042378847 0.87957835 0.47573507
1.5235177 3.3510246 80.431717 -0.0022109752 0.70833379 0.7058742
-3.937866 3.8376267 79.746689 -0.059758667 0.75222063 0.65619594
-58.220524 -38.185257 66.412201 0.74010146 0.19328612 0.6441198
51.725498 -4.5272813 67.180542 0.60189587 0.22435731 0.76641059
43.026581 -0.15470749 71.303253 0.45992914 0.45170447 0.76447898
12.800902 -65.522041 86.813324 0.097485341 0.56835908 0.81698501
13.949097 -66.594994 88.41394 -0.0056979284 0.82873189 0.55961692
7.8800201 -65.88031 87.293777 0.07739497 0.55806047 0.82618308
30.353724 2.2522705 75.857956 0.3141087 0.60742784 0.72963494
23.787312 6.7107944 71.810112 0.13690351 0.89142668 0.43199071
19.486609 7.2666674 68.827866 -0.00071457872 0.99919385 0.040138274
-3.0956378 -67.353127 89.512535 -0.0077725537 0.78573579 0.61851341
-4.8166127 -64.544853 86.641632 -0.026950937 0.40371943 0.91448575
-60.393089 -38.844631 69.106369 0.68346661 0.02513936 0.72954869
-62.671463 -39.366455 70.644669 0.48448655 0.60044241 0.63619322
-64.348763 -39.576729 72.423119 0.38100779 0.52997732 0.75759953
-68.100204 -39.67345 73.136932 0.334723 0.85017723 0.40639773
-71.579086 -38.183117 70.354996 0.26895234 0.94910401 0.16390926
-68.715904 -40.597252 75.948296 0.45156294 0.56908196 0.68719476
-139.53438 -92.694244 131.71495 0.59816605 -0.049879022 0.7998184
9.367979 6.0066524 19.956566 0.018868897 -0.99976736 0.010448414
-133.86296 -86.78373 126.9353 0.58291614 0.10561328 0.80563927
62.666386 -65.83709 62.63055 0.5400914 0.63623703 0.55091172
52.779922 -65.632431 70.747795 0.46640867 0.54514903 0.69661713
48.968819 -48.893349 70.761879 0.58688188 -0.014041349 0.80955082
56.044102 -15.222044 64.975075 0.70185292 0.04836769 0.71067792
-64.169502 -61.013931 -48.681053 -0.77929604 0.23486359 -0.58097923
45.633961 -63.938076 73.518433 0.52941579 0.24668202 0.81170619
50.682404 -9.0999804 68.932388 0.58906829 0.12069141 0.79901952
33.374817 -63.313644 79.465134 0.4221701 0.088193931 0.90221632
34.793236 -49.843948 78.603371 0.3953906 -0.019161103 0.91831321
30.660669 -63.969723 80.961746 0.32783574 0.25717711 0.90905648
-99.173615 -79.166718 101.89983 0.59016764 -0.032559779 0.80662382
37.354885 1.4584389 73.331474 0.35607263 0.61488545 0.7036534
33.572395 -7.8106365 78.741737 0.3761172 0.12478498 0.91813093
25.112825 -8.6961479 81.922432 0.32403672 0.13392216 0.93651754
22.627846 -22.177017 83.095245 0.25492054 0.005886998 0.9669441
21.195517 -0.24989513 80.768349 0.21961802 0.5311209 0.81833881
7.9788299 -58.585033 85.566566 0.065272853 -0.032736927 0.99733031
-0.39062461 -65.713211 87.463242 -0.070562221 0.65691125 0.75065881
2.9864485 -65.741646 88.254173 0.0007934217 0.63862592 0.76951694
-114.68401 -80.139046 87.713539 0.18769881 0.70785409 0.68096393
1.5060972 -66.981094 89.815994 -0.10986116 0.83530074 0.53870511
10.524005 -7.9809461 84.894814 0.10589286 0.14630307 0.98355585
-105.82192 -73.540497 102.52759 -0.25730512 0.76010799 0.59668237
-120.62708 -77.888138 92.093208 0.56019908 0.17676586 0.80927795
-10.414661 -56.56752 85.146744 -0.15887198 0.0017868914 0.98729753
-8.7298145 -62.583092 85.402458 -0.13692899 0.17587574 0.97484267
-12.402272 -65.31797 86.827133 -0.11348134 0.56468111 0.81747001
-7.8282862 -10.385035 85.222603 -0.11583138 0.07530161 0.99041045
-29.270359 -65.588005 82.085236 -0.34175411 0.54923302 0.76259249
-104.22028 -81.426376 105.70401 0.62300003 -0.076584697 0.77846372
-59.259254 -43.334846 69.387657 0.60291094 0.27565104 0.74867541
-62.6646 -42.795242 71.867531 0.57363719 0.15878788 0.80357128
-66.380608 -42.496052 73.300194 0.56886983 0.448578 0.68932211
-66.472839 -44.456013 76.669403 0.58791929 0.21139041 0.78081042
-78.220024 -62.249863 85.965752 0.55131704 0.076631218 0.83076906
-104.6671 -71.851166 79.317802 0.12859531 0.65145785 0.74770719
-14.771868 -44.255344 84.711052 -0.19110887 -0.01196222 0.98149592
27.604727 -60.388157 -73.548012 -0.29978096 -0.11244683 0.94735795
22.940592 -52.30962 -74.905296 -0.28310692 0.01098266 0.95902544
15.397765 -47.599228 -76.625031 -0.16979308 0.017432258 0.98532552
15.587214 -55.955688 -76.628052 -0.17983529 0.0043470818 0.9836871
4.768868 -44.795773 -77.832649 -0.038758215 0.0091735395 0.99920648
7.8229804 -54.021137 -77.737381 -0.053534247 0.014075917 0.99846679
-2.353313 -49.162983 -77.915459 0.058185827 -0.0065465043 0.99828434
-110.011 -84.768509 109.96487 0.62308818 -0.13199437 0.77093357
-54.612743 -40.575245 65.176147 -0.25710657 0.10323866 0.96085274
-5.2143679 -18.178303 -77.329384 0.18706247 -0.095683128 0.97767699
-123.33688 -84.762886 95.620087 0.38355321 0.43538007 0.81445146
43.62431 -10.685162 73.75721 0.50264215 0.076456614 0.86110693
41.967854 -21.060732 75.036896 0.49211583 -0.011981277 0.87044728
41.386154 -26.958988 75.331345 0.48171124 -0.0057964055 0.87631077
40.455154 -41.421211 75.998756 0.47112861 -0.011733118 0.88198644
34.140743 -15.246799 78.875389 0.39163595 0.029963702 0.91963226
32.808796 -21.342396 79.424446 0.37462646 0.0059950938 0.92715651
22.821499 -53.274593 82.910828 0.27654353 0.002355485 0.96099854
-109.86263 -78.875717 108.9069 0.48303497 0.32346058 0.81366479
21.231659 -15.608068 83.40654 0.24623659 0.0052852444 0.96919537
8.5864716 -12.109482 85.510811 0.091740221 0.080341257 0.99253672
-22.629435 -58.766293 -73.819984 0.2704013 -0.047867313 0.96155703
-128.47472 -84.143494 122.68819 0.57212639 0.14427705 0.80737573
-1.6651466 -21.368664 86.082939 -0.044599652 0.0051572849 0.99899167
-6.5084696 -34.336742 85.950142 -0.093498588 0.017918337 0.99545807
-6.4152279 -22.566761 85.856331 -0.099807687 0.011370798 0.99494177
-10.25507 -33.012043 85.308548 -0.17221324 0.0025459733 0.98505646
-10.06852 -51.868103 85.057304 -0.13894567 -0.0019895909 0.99029803
-42.35828 -54.657578 -64.671577 0.5673126 0.048871923 0.82205099
-128.9295 -81.507019 99.033989 0.6003682 0.23696858 0.76380879
-20.86249 -30.217852 83.246185 -0.24237359 -0.0024458389 0.97017998
-54.380089 -52.448654 -55.424152 0.6456266 0.020326158 0.76338273
-60.227417 -53.612087 -52.899529 -0.73851562 -0.0021794117 -0.67423284
-57.563469 -55.418526 61.655334 -0.72655886 -0.046271268 0.68554455
-60.83918 -58.501266 57.552494 -0.75425977 -0.067708574 0.65307564
-86.618958 -66.69706 91.923576 0.54799539 0.073100239 0.83328116
1.0474501 -54.027843 85.808182 -0.029049421 -0.0077427058 0.99954796
-113.91532 -79.444611 111.15534 0.52098155 0.27212828 0.80902684
57.508518 -23.491911 -55.47216 -0.70332569 -0.020463889 0.7105732
54.209702 -22.217615 -58.632751 -0.65837437 -0.037721623 0.75174475
53.939892 -26.406385 -58.963203 -0.64178592 0.012106746 0.76678836
50.23671 -21.540045 -61.791565 -0.59866691 -0.02958663 0.80045152
50.63023 -25.761593 -61.528027 -0.58857697 0.011322898 0.80836189
49.343227 -29.539555 -62.322182 -0.58747083 0.0036674002 0.809237
46.064236 -24.185133 -64.736305 -0.54651159 -0.0086744754 0.83740658
42.170204 -23.633795 -67.088631 -0.50082535 -0.016730631 0.86538661
45.471027 -30.362808 -65.112152 -0.53596872 0.008573629 0.84419423
41.600899 -15.586514 -67.059944 -0.49218309 -0.036532704 0.86972481
41.419437 -19.395611 -67.266563 -0.49431601 -0.034488153 0.86859787
37.419628 -14.08304 -69.301338 -0.44247928 -0.075740129 0.89357454
37.132191 -19.403091 -69.684174 -0.43961686 -0.039084062 0.89733464
39.412075 -25.589041 -68.642006 -0.46669757 -0.0088011716 0.88437319
35.022678 -22.631624 -70.81163 -0.40395993 -0.018832419 0.91458285
36.75359 -28.845478 -70.013168 -0.42895594 0.01103776 0.90325797
33.392872 -10.935384 -70.809303 -0.3951242 -0.099678159 0.91320384
31.417965 -13.167077 -71.805573 -0.37292469 -0.060659774 0.92587662
32.01952 -21.873827 -71.907921 -0.36644173 -0.024005674 0.93013126
30.129259 -4.0655041 -71.441238 -0.34726506 -0.18530835 0.91927564
33.166458 -18.493784 -71.301956 -0.38293082 -0.044819307 0.92268914
29.183292 -8.3286037 -72.146584 -0.321444 -0.10457529 0.94113648
29.395222 -18.630877 -72.897636 -0.36312827 -0.044110402 0.93069446
29.229382 -26.233215 -73.125999 -0.35936385 -0.013998017 0.93309253
25.976566 -8.4934759 -73.225029 -0.29322597 -0.11700102 0.94885683
26.367599 -12.574898 -73.647911 -0.30313075 -0.085295931 0.94912404
25.234678 -25.047888 -74.568367 -0.28336442 -0.0026056338 0.95900881
21.953398 -4.0652332 -73.926109 -0.25329599 -0.22351938 0.94121212
21.277271 -20.217569 -75.599922 -0.22329499 -0.022112146 0.97450006
18.501007 -12.880573 -75.814278 -0.19716771 -0.10527421 0.97470105
21.682606 -15.748497 -75.215446 -0.25924456 -0.073501647 0.96301079
19.792267 -24.952427 -75.80954 -0.22594473 -0.0022921604 0.97413749
21.426981 -7.952785 -74.574974 -0.24519962 -0.099620253 0.96434075
23.549101 -37.343575 -74.975693 -0.28440341 -0.01066131 0.95864546
19.681614 -10.231859 -75.140785 -0.22613348 -0.097415023 0.96921307
17.070278 -15.720883 -76.261871 -0.17625038 -0.058465198 0.98260754
16.380259 -21.741722 -76.581963 -0.19149619 -0.021234263 0.98126364
16.557091 -27.338179 -76.681313 -0.1892143 0.00013304783 0.98193574
13.289561 -10.796359 -76.378372 -0.15312307 -0.087796502 0.98429936
13.779292 -17.369465 -76.864708 -0.1498751 -0.046690062 0.98760188
13.344611 -22.917114 -77.111755 -0.11937572 -0.022266712 0.99259943
6.8062901 -6.0012312 -76.785889 -0.043783292 -0.14095023 0.98904806
8.9600306 -12.749916 -77.326698 -0.072447464 -0.074422657 0.99459171
7.0148592 -23.038742 -77.738647 -0.050917521 -0.013583387 0.9986105
9.409626 -18.483559 -77.368385 -0.080703422 -0.032248866 0.99621636
8.8661633 -26.805824 -77.599419 -0.063063949 -0.0052422988 0.99799573
5.5233207 -20.047525 -77.768738 -0.014435729 -0.034053937 0.99931574
7.0546141 -33.76107 -77.874748 -0.060558528 -0.017876284 0.99800456
2.036938 -9.8657761 -76.983437 0.027496871 -0.075793207 0.99674433
3.7727866 -26.045063 -77.80497 -0.00083725801 -0.0075634769 0.99997103
4.0793848 -30.440248 -77.79998 -0.027303293 -0.030205255 0.99917078
6.9411321 -41.914589 -77.898384 -0.066459402 0.011800273 0.99771941
3.5869317 -14.725241 -77.484764 0.00057957193 -0.070843056 0.99748737
0.031192979 -16.251713 -77.527336 0.040730964 -0.055178441 0.99764544
0.60299152 -27.988878 -77.709045 0.096054703 -0.038870584 0.99461681
0.54914707 -21.173731 -77.617737 0.029975325 -0.0022458963 0.99954814
-2.6902759 -21.164936 -77.601692 0.063902162 -0.032884687 0.99741429
-1.006677 -31.894625 -77.982658 0.034004346 -0.063169412 0.99742335
-3.8964186 -30.277828 -77.693008 -0.0073145134 -0.048948307 0.99877459
-5.0577097 -34.049217 -77.740303 0.097551413 -0.011678326 0.99516189
-7.5087094 -28.452784 -77.559998 0.089902721 -0.021879889 0.99571019
-9.7550526 -23.470896 -76.9533 0.12664343 -0.073641434 0.98921108
-9.4601526 -32.902454 -77.171623 0.16951808 0.015225057 0.98540944
-14.019486 -23.572151 -75.91861 0.18104674 -0.087940365 0.97953486
-10.038644 -26.792507 -77.199181 0.19972867 -0.03315042 0.97929031
-11.355026 -37.802834 -76.895157 0.1495941 -0.023704717 0.98846328
-14.452377 -29.703856 -76.276833 0.20885113 -0.01537397 0.9778266
-16.423277 -44.24987 -75.8619 0.22496402 0.039968379 0.97354692
-18.800497 -28.794651 -75.320366 0.22593164 -0.015174489 0.97402495
-16.537466 -33.920673 -75.775429 0.19143063 -0.026584905 0.9811461
-14.08752 -40.537045 -76.660828 0.23068903 -0.0086852917 0.97298878
-20.247721 -26.043427 -74.862801 0.28659457 -0.014389297 0.95794386
-20.68696 -22.974052 -74.668549 0.23989283 -0.07700327 0.96774065
-21.349884 -49.621094 -74.421677 0.26884308 0.021068353 0.96295357
-23.757401 -41.025692 -73.759979 0.32196936 -0.0023267358 0.94674718
-23.623705 -27.328672 -73.808121 0.3087056 -0.017950321 0.95098829
-24.259649 -31.251219 -73.830177 0.32128787 -0.010224809 0.94692641
-27.613909 -31.571135 -72.42202 0.35619637 -0.0014870025 0.93440992
-28.611389 -38.931793 -71.967476 0.38190943 0.015430358 0.92407089
-24.646257 -46.824863 -73.394508 0.33200487 0.0025416657 0.94327426
-29.788113 -45.926704 -71.578476 0.37595707 -0.002936363 0.92663246
-35.030121 -39.059322 -69.160568 0.44895786 0.020619169 0.89331496
-110.28409 -66.083687 79.79641 -0.47295997 0.80193824 0.36497107
53.035557 -49.201187 67.392403 0.6108259 -0.0068226811 0.79173553
32.027134 -59.025833 -71.750381 -0.39523414 -0.09104982 0.9140569
45.052925 -53.809025 73.339554 0.53230256 -0.019719874 0.8463245
27.943296 -56.054459 -73.395691 -0.34332147 0.0011311005 0.93921727
39.820923 -31.693001 76.050484 0.47792196 0.012380901 0.87831503
20.286821 -46.128014 -75.748894 -0.23253043 0.016567245 0.97244805
35.592377 -26.045069 78.272049 0.44085565 -0.0021789817 0.89757538
40.621315 -58.926025 75.691994 0.47506332 0.011531905 0.87987608
20.711538 -58.011356 -75.52552 -0.24060689 -0.013857921 0.97052372
12.391182 -40.282513 -77.260391 -0.14552532 0.0057590511 0.9893378
30.276407 -35.623581 80.702965 0.34319341 0.012691106 0.939179
2.6454818 -4.1182513 -76.697952 0.019830003 -0.18116604 0.98325258
-0.38689068 -6.9458871 -76.649391 0.081391171 -0.11824003 0.98964375
17.998142 -2.4484937 82.64151 0.18091793 0.38083205 0.90677214
-1.7094775 -1.3787349 -75.64241 0.087032385 -0.35151964 0.93212622
-56.790352 -54.128677 -56.607513 -0.70682126 -0.001910519 -0.70738965
2.4763029 -55.608601 -77.836472 -0.00078773435 -0.00073149626 0.9999994
2.6083324 -48.315529 -77.925026 -0.010155623 0.0039393194 0.99994063
3.0423453 -62.099014 -77.856552 -0.044864748 -0.3680445 0.92872512
-0.18124785 -53.047169 -77.814758 0.0031717774 0.029891016 0.99954808
-5.5926223 -8.4488821 -76.464249 0.14030252 -0.061603382 0.98819035
-4.9451766 -58.128746 -77.425964 0.094270535 -0.005787991 0.99552977
-9.5526657 -6.8557577 -75.734993 0.13468622 -0.19218309 0.9720726
-5.9602041 -12.095287 -75.846581 0.32392815 0.029547935 0.94562018
18.733099 -29.892843 84.038864 0.2227746 0.019379336 0.97467738
17.940712 -50.791729 84.055969 0.20746818 0.0048878468 0.97822958
-11.469081 -2.1823034 -74.564491 0.13859695 -0.38947284 0.9105503
16.757483 -43.665691 84.462608 0.20358148 -0.033028603 0.97850072
-9.8705225 -62.951679 -77.130684 0.11591768 -0.2980971 0.94747096
-4.171814 -66.424858 -79.907578 0.1057019 -0.72046858 0.68538463
9.5990982 -50.37294 85.526985 0.13084476 0.029502045 0.99096388
-120.69273 -84.81646 95.975357 -0.17391509 0.97062367 0.16626251
11.409541 -42.523163 85.401543 0.12876122 -0.036820084 0.99099183
9.1801119 -29.367002 85.575356 0.10036633 0.013042306 0.99486506
-12.704936 -54.734844 -76.413773 0.15758216 0.020903731 0.9872846
-11.314715 -59.533585 -76.669769 0.16448925 -0.023047384 0.98610961
4.0438375 -27.382107 85.80127 0.026640881 -0.0068704281 0.99962151
-17.408642 -57.019024 -75.509354 0.24544349 0.012234663 0.96933371
-19.648317 -60.383286 -74.823593 0.25481609 -0.10654359 0.96110207
-0.19018778 -26.260775 85.95739 -0.022506196 -0.0075862263 0.99971789
-22.856478 -54.198776 -73.863892 0.27459663 0.02333284 0.96127635
-26.202951 -58.635921 -72.911125 0.33786416 -0.030980289 0.94068491
-31.784193 -10.026287 -69.735252 0.41494843 -0.10841701 0.90336233
-25.40844 -51.600445 -73.279984 0.35340983 0.008725984 0.93542796
-34.633286 -15.463637 -68.759697 0.43464601 -0.059310243 0.8986463
-32.040871 -31.735344 -70.815849 0.40667251 -0.015099407 0.91344923
-29.394428 -60.570499 -71.373512 0.40693128 -0.085592508 0.90943986
-33.866447 -25.111816 -69.463135 0.45256373 -0.041423861 0.89076942
-33.725204 -21.596937 -69.575943 0.43282604 -0.034145746 0.90083057
-33.973701 -34.605675 -69.765984 0.44293207 0.02474035 0.89621377
-34.584969 -50.016895 -69.49749 0.421846 0.042562485 0.90566796
-37.050934 -25.4792 -67.813774 0.46506569 -0.025563605 0.88490701
-34.087593 -57.444294 -69.31134 0.39785734 -0.005813845 0.91742891
-32.797905 -61.048985 -69.80307 0.41748905 -0.1434682 0.89728469
-37.922134 -21.023947 -67.373337 0.49417782 -0.031487864 0.86879039
-43.616901 -19.063738 -63.8242 0.55915278 -0.040763587 0.82806182
-41.259132 -27.594961 -65.670883 0.51765358 -0.03916838 0.85469329
-38.934902 -34.633076 -67.081795 0.48321873 0.012758403 0.87540662
-37.012394 -42.655312 -68.245087 0.46492523 -0.055074617 0.88363522
-42.352367 -9.2939777 -63.743404 0.54957223 -0.094564199 0.83007711
-45.8554 -15.185985 -61.992558 0.57664555 -0.075238034 0.8135227
-43.827847 -26.200716 -63.745731 0.57409835 -0.036470946 0.81797367
-48.35619 -11.807059 -59.793743 0.62202108 -0.083364971 0.77854985
-44.087318 -58.895294 -63.352757 0.57854849 -0.063968554 0.81313568
-47.378677 -19.650949 -61.138485 0.62112582 -0.034408581 0.78295517
-47.95351 -49.680698 -61.171764 0.61301291 -0.014759289 0.78993499
-47.171055 -52.853897 -61.889614 0.57756859 0.033897743 0.81563812
-48.712669 -25.75197 -60.152374 0.61088657 -0.023430044 0.79137135
-50.776272 -22.911386 -58.417057 0.66166818 -0.028313486 0.74926198
-50.13612 -30.641592 -59.379803 0.62715411 -0.036772374 0.77802664
-49.370583 -45.342197 -59.886284 0.62158179 0.008232181 0.783306
-52.263443 -19.942846 -57.030228 0.65556431 -0.030915046 0.75450623
-53.794945 -15.927116 -55.524109 0.67748898 -0.069133937 0.73227668
-54.601028 -34.06506 -55.412682 0.67831045 -0.024956042 0.73435158
-53.191608 -43.269741 -56.851402 0.66468656 0.015940042 0.7469523
-55.142094 -21.924683 -54.42524 0.69332325 -0.016276464 0.72044289
-55.880611 -27.688808 -53.782677 0.71311045 -0.030493591 0.70038813
-51.726749 -53.042686 -57.855026 0.66196358 -0.0079618711 0.74949366
-125.8017 -84.960335 97.403168 0.57301557 0.28124171 0.76977676
-60.717545 -19.48741 -48.291515 0.77629709 -0.03145393 0.62958193
-55.553989 -57.081699 -53.740086 0.74953526 0.044060893 0.66049641
-57.887249 -21.73634 -51.658638 0.74129587 -0.016039141 0.67098677
-60.125 -29.76264 -49.030231 0.76599842 -0.043061487 0.64139855
-62.499035 -30.20042 -46.213528 0.77082586 -0.034925818 0.63608783
-130.68509 -89.014893 124.87527 0.58852166 0.040625919 0.80746013
-57.538723 -61.231243 -52.030552 0.72750282 -0.060435459 0.68343771
-63.502514 -25.390612 -44.791847 0.80473626 -0.027321557 0.59300333
-60.770763 -57.872578 -48.493 0.75632113 -0.066187225 0.65084374
-65.419434 -50.226044 -42.106636 0.79832792 0.051246993 0.60003847
-64.358589 -53.583618 -43.16851 0.79735476 0.038540915 0.60227895
-67.13163 -52.94104 -39.336418 0.83019406 0.0086180214 0.5574078
-52.727169 -43.060875 66.029686 -0.58453631 0.034225065 0.81064534
-93.461037 -79.019341 97.034119 0.67847878 -0.43276128 0.59361953
-93.78965 -75.154991 97.745354 0.59348398 0.047047384 0.80346954
10.152161 -46.554626 84.937622 0.099175282 -0.021911463 0.9948287
-58.987926 -55.919899 -50.262226 0.75932109 0.015810316 0.65052408
64.076836 -6.5014729 -46.583553 -0.76629055 -0.16789939 0.62016815
61.149323 -5.0494366 -50.121132 -0.72935927 -0.17756501 0.66068572
61.944355 -10.382815 -50.039116 -0.72532916 -0.10236984 0.68074805
62.055824 -18.083244 -50.459484 -0.71800905 -0.048630629 0.69433278
58.525928 -5.5109453 -52.909439 -0.70571625 -0.12708259 0.69700402
62.648819 -15.193252 -49.969662 -0.70702749 -0.048748359 0.70550394
62.214447 -21.217924 -50.547581 -0.73888594 -0.035313718 0.67290449
59.660915 -11.855645 -52.733398 -0.69924247 -0.072866932 0.71116126
59.897629 -21.336544 -53.05434 -0.70402133 -0.02273505 0.70981485
58.774521 -16.46195 -54.068386 -0.72071582 -0.064066835 0.69026387
54.558598 -3.6842234 -56.429768 -0.64280778 -0.22608522 0.73190409
54.959267 -10.920617 -57.205921 -0.67927027 -0.092075691 0.72808921
55.736046 -8.114809 -55.941235 -0.66668379 -0.11588416 0.73627675
51.865547 -14.577898 -60.106758 -0.64313591 -0.05969039 0.76342201
55.650883 -15.161801 -56.841694 -0.67008728 -0.0297576 0.74168557
51.057465 -8.8356905 -60.108036 -0.59587878 -0.10094374 0.79670501
49.50182 -11.436239 -61.442822 -0.58582389 -0.096270666 0.80470014
46.227985 -8.1548347 -63.361496 -0.56071317 -0.10128155 0.82179248
42.479279 -8.2656469 -65.89846 -0.51271009 -0.11393666 0.85096812
-87.689514 -75.614761 92.612938 0.69671476 -0.45152518 0.55741674
61.146347 -26.942055 -51.91378 -0.72720808 -0.013697219 0.68628037
60.33078 -1.8123497 -49.942749 -0.66459602 -0.41379783 0.62216038
56.465752 -1.9045141 -54.025414 -0.65321642 -0.40081736 0.64238125
55.902618 -19.073158 -56.795704 -0.68315244 -0.04424043 0.72893447
-104.73412 -85.100525 104.73576 0.63549322 -0.50092417 0.58755702
53.239563 -13.220418 -58.875999 -0.62354791 -0.070562869 0.77859426
50.79937 -3.0230014 -59.367161 -0.62178749 -0.22865614 0.74906385
49.118176 -4.0474272 -60.84882 -0.57244098 -0.19855641 0.79554176
49.798294 -15.060489 -61.765938 -0.59233314 -0.071303055 0.80253178
46.100159 -0.105978 -61.496304 -0.49961084 -0.43851373 0.74705744
45.711372 -3.8101461 -63.224747 -0.55847585 -0.16865706 0.81219429
45.055218 -10.686085 -64.490555 -0.55455315 -0.096104935 0.82658011
42.725163 -3.2516961 -65.041588 -0.48852885 -0.30628723 0.81702369
38.989334 -0.66059244 -66.200394 -0.43764845 -0.51636046 0.73609489
42.006161 -11.927654 -66.620842 -0.50203657 -0.082321025 0.86091959
36.563805 -2.2981002 -68.206474 -0.39692748 -0.38235003 0.8344202
38.379707 -6.892808 -67.8983 -0.45361593 -0.11446882 0.88381523
34.237488 -3.2220974 -69.566338 -0.39561489 -0.19876546 0.89664996
32.27169 -27.485981 -71.91925 -0.37908643 0.0033764346 0.92535508
26.210443 -20.312181 -74.168991 -0.32006243 -0.037189636 0.94666624
22.787758 2.4169681 -70.378349 -0.19793251 -0.62334865 0.75647819
36.830013 -62.411488 -69.942535 -0.40985054 -0.2539722 0.87608254
18.18358 -0.1936391 -73.271706 -0.19614646 -0.49120194 0.84867376
16.157221 -3.5656836 -75.2127 -0.18713734 -0.27976909 0.94165224
12.969075 1.5665116 -73.244049 -0.11246879 -0.59621769 0.79490584
8.1404486 -1.613968 -75.683403 -0.072798267 -0.43465498 0.89765
1.5045002 5.2531114 -69.291145 0.017322039 -0.83529377 0.54953092
8.1994247 -64.375122 -78.284454 -0.11274724 -0.56030905 0.8205741
-5.5856977 -3.3441741 -75.634987 0.13390397 -0.28204429 0.95001096
-108.27489 -86.653755 107.14268 0.61123055 -0.57839835 0.54023385
-6.9109101 1.57498 -73.450974 0.11642547 -0.4646422 0.87781125
-7.5144753 5.9042692 -67.238647 0.047717247 -0.94681233 0.3182286
-5.2207947 -15.645999 -76.714638 0.48179635 -0.13716041 0.86548215
-6.7255192 -14.516764 -75.739967 0.51259571 -0.056458425 0.85677195
-139.93097 -97.324135 116.79663 0.29250869 -0.94195604 0.1647955
-7.3722677 -18.213955 -75.404961 0.61772466 -0.17856435 0.76585317
-3.5493784 -63.308887 -77.785828 0.098854385 -0.32228646 0.94146657
-6.8954988 -21.252502 -77.143372 0.19548318 -0.078648716 0.9775483
-14.678032 -12.698642 -72.9589 -0.52214342 -0.14370918 0.84066278
-17.037634 -10.116837 -74.798958 0.20820162 -0.071536504 0.97546637
-18.187292 -12.070477 -73.628578 0.19462813 0.1956418 0.96116817
-14.948272 -20.243464 -74.430161 -0.043340713 -0.24598448 0.96830428
-16.703873 -23.639578 -75.82296 0.16016291 -0.14546505 0.97631329
-120.31654 -92.059525 114.59254 0.5266785 -0.75627851 0.38813981
-19.765316 0.68623412 -71.04229 0.21451196 -0.63606817 0.74121654
-17.570534 -16.633408 -74.673882 0.047356606 -0.054521319 0.99738902
-23.707504 -1.3919479 -70.869049 0.30364022 -0.40472832 0.86255294
-16.532763 -13.405686 -74.231758 -0.1853864 -0.13810551 0.97291249
-142.24695 -97.396774 103.73152 0.10628372 -0.97994286 -0.16856934
-20.452738 -18.077454 -74.316422 0.18970476 -0.046544246 0.98073733
-24.181459 -20.424507 -73.456299 0.32314757 -0.062957823 0.94425201
-10.71281 -66.244263 -79.012741 0.12974226 -0.58571136 0.80006814
-23.136539 -7.2959108 -72.298431 0.30905253 -0.16194117 0.93715608
-23.383778 -15.806784 -73.448563 0.3063398 -0.055233978 0.95031852
-14.868539 -62.011364 -75.96875 0.20343398 -0.19652249 0.95916295
-26.923275 -5.9129882 -71.208504 0.33315864 -0.18744542 0.92405063
-26.874102 -11.309666 -72.030479 0.34660056 -0.096606694 0.93302476
-25.410744 -23.84664 -73.296021 0.33929488 -0.020505385 0.94045657
-28.424538 -18.275148 -71.720757 0.38772061 -0.051232245 0.9203521
-32.584488 -3.3113463 -68.257446 0.41478777 -0.32410935 0.85023773
-29.645908 -23.586651 -71.502464 0.3923583 -0.036255307 0.9190976
-36.541103 -2.6298327 -65.922783 0.44221601 -0.44898194 0.77644074
-123.73291 -91.734314 118.77494 0.55509233 -0.60554564 0.57025182
-38.433922 -15.489967 -66.813698 0.50936025 -0.066074729 0.85801297
-45.331993 -4.986804 -61.096107 0.57331431 -0.20931686 0.7921471
-32.942616 -65.82048 -71.373215 0.410882 -0.41381276 0.8123638
-37.162563 -64.873932 -68.422028 0.43547776 -0.36926156 0.82097811
-53.538181 -9.5706129 -54.926796 0.67374426 -0.12160743 0.7288897
-48.798565 -5.2366686 -58.449165 0.62612015 -0.24963273 0.73868608
-54.615582 -6.6683974 -53.518505 0.69626951 -0.15548146 0.70073831
-57.17757 -14.316358 -51.929783 0.72495818 -0.072142132 0.68500453
-58.936531 -12.615485 -49.777275 0.76062 -0.075619012 0.64477825
-47.098312 -57.620544 -61.23621 0.54181141 0.071349367 0.83746624
-61.583092 -13.752 -46.666573 0.784729 -0.087396793 0.61364663
-63.532078 -15.93074 -44.326363 0.80822814 -0.051414534 0.58662057
-65.140778 -21.020905 -42.38707 0.82161266 -0.024364948 0.56952524
-55.755482 -66.053879 -55.31171 0.63413155 -0.40214634 0.6604206
-66.614128 -14.684271 -39.509804 0.84590214 -0.059499059 0.53000891
-67.543671 -5.5445137 -36.04327 0.84939432 -0.23314978 0.47346649
-67.181511 -24.417984 -39.346779 0.84841454 -0.029236527 0.5285244
-66.133286 -18.005987 -40.780666 0.83604914 -0.059432089 0.54542601
-67.014091 -28.874586 -39.938202 0.83363652 -0.053080548 0.54975688
-68.627579 -14.810193 -36.261383 0.86707789 -0.077814966 0.49205762
-70.175079 -13.648204 -33.273109 0.89238858 -0.080191039 0.44408548
-68.73053 -21.787508 -36.702126 0.87090111 -0.039192975 0.48989311
-61.093929 -66.580704 -49.94804 0.68610889 -0.30997086 0.65815854
-69.51976 -29.498657 -35.901253 0.86719298 -0.046453487 0.4958007
-70.279732 -20.704084 -33.833622 0.88943696 -0.030828714 0.45601693
-72.198746 -17.265543 -29.585131 0.91828227 -0.044026397 0.39347097
-71.409393 -25.459484 -31.574951 0.90853667 -0.031743795 0.41659749
-74.22419 -13.393163 -23.864344 0.93477041 -0.095272072 0.34223905
-64.334602 -63.457584 -43.761375 0.80536008 -0.22344577 0.54906011
-74.86425 -21.519386 -23.134014 0.94119656 -0.029919501 0.33653229
-76.731926 -25.771889 -17.454679 0.96594614 -0.04900644 0.25405985
-60.815796 -55.673553 58.22279 -0.71111554 -0.15659355 0.68541455
-91.403557 -46.144276 59.166183 -0.69381624 0.10731772 -0.71211088
-57.337959 -1.9888495 -48.621082 0.65590018 -0.50802416 0.55830669
-57.336571 -51.031078 68.756355 0.6235497 -2.1858028e-05 0.78178376
46.635067 -16.301105 -64.046547 -0.55673951 -0.065791041 0.82807761
34.369793 -6.5439763 -69.734283 -0.42330006 -0.10526782 0.89985317
-4.0087667 -25.52562 -77.648865 0.015783716 -0.014987607 0.99976313
-13.39458 -32.910046 -76.324768 0.19366294 -0.00083664007 0.98106778
-37.493618 -9.6414299 -66.837296 0.47677612 -0.1228727 0.87039459
-41.173233 -19.613657 -65.361572 0.52386987 -0.019899545 0.85156578
65.717438 3.3992057 -37.656216 -0.54185867 -0.76096559 0.3568202
66.096947 -2.0882113 -42.863846 -0.71939498 -0.40431678 0.56479985
66.672127 0.14899759 -40.528458 -0.69695592 -0.52523094 0.4882468
-117.67449 -91.522827 111.95667 0.47937375 -0.80297267 0.35416904
82.044083 -65.534828 -19.674868 -0.59072971 -0.77645487 0.21944544
78.879715 -63.401531 -23.391176 -0.73095328 -0.63084918 0.26026261
62.845135 3.4548495 -42.050659 -0.5590027 -0.72786206 0.39715582
62.16367 1.9264911 -44.999767 -0.64692545 -0.53862399 0.53978842
75.989395 -63.656418 -31.391121 -0.65800536 -0.69367296 0.29299641
73.064674 -64.673836 -38.167744 -0.38614896 -0.89010739 0.24206978
73.08876 -66.633774 -43.965866 -0.39762393 -0.87121558 0.28788629
69.082222 -64.736832 -44.605976 -0.41955397 -0.86013514 0.29007253
52.595203 0.90938324 -55.676949 -0.53692323 -0.56563288 0.62591767
49.312523 0.70716089 -58.221539 -0.53167766 -0.50637478 0.67889875
43.180168 2.3755696 -61.094952 -0.39367351 -0.64947444 0.65054131
62.484596 -65.490211 -53.65601 -0.208235 -0.93119937 0.29917526
34.43058 2.9283557 -65.637947 -0.31276974 -0.67220598 0.67105448
30.935083 2.9847333 -67.084702 -0.2755636 -0.6752727 0.68415743
29.898684 -0.63694155 -70.11348 -0.32619309 -0.47096395 0.8196286
46.281036 -66.490723 -68.338913 -0.30869326 -0.78953153 0.53042293
26.594612 -0.9070673 -71.398178 -0.27247918 -0.5092625 0.81633741
24.805035 -2.5364568 -72.748367 -0.26638737 -0.30080307 0.9157266
41.045731 -62.460705 -67.725563 -0.49399456 -0.25902358 0.82998568
40.832211 -66.211342 -70.917458 -0.31125888 -0.7564553 0.57523328
17.241322 3.464576 -70.543098 -0.12279589 -0.79576707 0.59302282
-127.34473 -94.235481 119.30052 0.50294155 -0.7672739 0.39792019
-0.818169 -27.356569 -77.143669 0.015725389 -0.027992543 0.99948448
30.900766 -64.649017 -73.604691 -0.3283239 -0.34993294 0.8773542
7.7354898 2.7740839 -72.405266 -0.051230546 -0.69658047 0.7156474
12.292875 -5.3165998 -76.28035 -0.14175034 -0.12346837 0.98217237
9.908905 -8.0683203 -76.481407 -0.1239779 -0.08359471 0.98875749
24.587725 -63.070644 -74.865692 -0.24439722 -0.30041239 0.92196661
20.87534 -65.970421 -77.792458 -0.17918789 -0.66272521 0.72710866
4.1753259 -1.4195882 -75.52681 -0.015606203 -0.44698027 0.89440769
-5.5451241 3.4475896 -71.44268 0.047756705 -0.81146067 0.58245254
-10.073656 3.191232 -71.200714 0.15846157 -0.72748226 0.66757739
-136.62624 -97.430405 124.80518 0.41517606 -0.88178182 0.22380748
-145.73422 -97.91748 134.9514 0.58623743 -0.57332176 0.57238781
-36.099915 4.4894595 -59.067162 0.28372622 -0.87471831 0.392896
-41.864651 5.3755054 1.5120819 -0.0016225248 -0.99993789 -0.011024033
