# .PCD v0.7 - Point Cloud Data file format
VERSION 0.7
FIELDS x y z normal_x normal_y normal_z
SIZE 4 4 4 4 4 4
TYPE F F F F F F
COUNT 1 1 1 1 1 1
WIDTH 731
HEIGHT 1
VIEWPOINT 0 0 0 1 0 0 0
POINTS 731
DATA ascii
-28.209417 -72.241051 10.526648 -0.90619493 0.15252177 0.3943955
-29.305967 -76.511551 9.2656517 -0.91674215 0.1377691 0.37497127
-26.494041 -75.585602 11.892762 -0.89007026 0.18461874 0.41676226
-13.835391 -72.588181 31.436033 -0.63560593 0.17531842 0.75184345
-10.962057 -74.094673 33.657654 -0.29684126 0.07867144 0.95168066
-14.697011 -74.285065 30.865425 -0.85960585 0.13565105 0.49262211
-99.403252 -101.99892 89.929596 0.21429616 0.81941378 0.53163731
-31.376032 -83.743126 -1.3008623 -0.96444505 0.10530769 0.24239638
-11.282156 -77.587807 33.478642 -0.25569665 0.077339157 0.96365857
-30.995958 -84.311287 0.69393086 -0.95612586 0.11183595 0.27076936
-29.674978 -84.434425 5.3511906 -0.99121821 0.081204183 0.10436577
-9.1621809 -82.755814 33.676205 -0.40920016 0.10136772 0.90679651
-33.180935 -91.818489 -12.648343 -0.99708176 0.060837425 0.046116974
-30.361937 -84.605484 9.7013979 -0.8640601 0.49938136 0.06339062
-32.323528 -90.020546 -5.0364513 -0.98296499 0.052602123 0.17610466
-9.7809858 -84.499664 33.826668 -0.37784675 0.051659625 0.92442578
-2.5259635 -86.098419 38.496403 -0.47511485 0.092601769 0.87503761
-11.803887 -85.576279 33.625614 -0.38413846 0.41232282 0.82609171
-8.4911671 -85.114418 35.279907 -0.52902716 0.12930968 0.83869499
-10.520067 -87.436653 33.845592 -0.19856858 0.073993802 0.9772898
-14.475166 -87.21032 33.852844 -0.14387751 0.79522866 0.58899128
-12.235998 -87.692261 34.89571 0.21141182 0.40157589 0.89109021
-7.2375827 -88.744835 35.721169 -0.59258711 -0.0091158254 0.80545485
-5.0792861 -87.972946 37.21629 -0.51526958 0.075783826 0.8536709
-33.500957 -99.262985 -13.515823 -0.94271803 0.3324914 -0.027058702
-33.271252 -99.69194 -17.689596 -0.88781476 0.4537878 -0.076560661
-32.204205 -96.222206 -3.3704653 -0.98508877 0.01198562 0.17162894
-8.304224 -91.066193 35.414906 -0.61112708 0.10755514 0.78419095
-2.0631506 -90.605484 39.564457 -0.46576056 0.084710047 0.88084686
-31.855768 -95.790054 -0.6322884 -0.97337472 0.035007957 0.22653079
0.3814351 -92.960121 40.583336 -0.41913405 0.033126287 0.90731984
-30.729315 -97.354187 1.6411097 -0.93594056 0.17549844 0.30531204
-8.5320988 -93.256607 35.36879 -0.62439895 -0.060402054 0.77876669
-32.405312 -99.504669 -1.4540044 -0.93117589 0.28898981 0.22225302
-1.2832329 -95.7612 39.296429 -0.57303381 -0.052640837 0.81783944
1.254849 -96.315315 41.321518 -0.4318926 0.066046491 0.89950359
-32.486877 -100.62245 2.9648035 -0.7860055 0.57418638 0.22914076
-30.40307 -98.603203 3.3274431 -0.94111484 0.15165548 0.30216458
-8.7567043 -96.475197 34.17152 -0.83087206 0.11237551 0.54499841
-9.3321695 -98.878593 32.855251 -0.96790349 0.24927703 -0.031997062
-6.8641863 -96.668747 36.152927 -0.6327911 0.050411925 0.77267975
-93.168037 -111.82947 64.94529 -0.12746033 -0.89315122 -0.43131751
-0.69756848 -98.642136 39.701035 -0.50414711 0.37146023 0.77964926
4.3781319 -98.741135 42.335022 -0.32622609 0.28995916 0.89972234
9.5586004 -101.78675 46.512383 -0.18309346 0.6817891 0.7082659
4.5151224 -101.69527 45.09692 -0.2429468 0.70510143 0.66618991
-4.5545087 -100.66785 38.983963 -0.39157653 0.46021643 0.79678649
6.7989411 -101.92464 46.989693 -0.023726214 0.98863721 0.14843713
-8.381155 -100.63826 37.485153 -0.40588439 0.59574497 0.69306982
-93.970596 -103.99149 88.129433 0.52245748 0.22878608 0.82139826
-1.8240162 -101.27264 41.265675 -0.39910895 0.58892065 0.70276916
68.91301 -68.518593 28.82387 0.67407191 0.15614161 0.72197431
-54.706085 -89.101364 37.989094 -0.29867482 0.93390739 -0.19649529
-65.914185 -90.828743 47.31469 -0.23691939 0.96556401 -0.10749575
-68.728027 -91.247971 49.908215 -0.26403949 0.95883173 -0.1045216
-107.99207 -98.124321 84.441216 -0.12013876 0.98914236 0.084640697
-74.609245 -92.081215 56.837524 -0.13792078 0.98928475 0.047890577
-101.42794 -96.889931 80.188957 -0.086377844 0.98655903 0.13870862
-84.814377 -94.48336 59.700607 -0.32191011 0.92105556 -0.21915863
-27.252781 -72.366234 12.498668 -0.88345617 -0.0061247707 0.46847382
45.546207 -102.18189 44.993706 0.36244273 0.45894694 0.81117374
-52.62381 -93.19043 56.606022 0.29113832 0.7052626 0.64640778
-24.714275 -43.088642 -8.9108725 -0.92018765 0.38941169 0.04016538
-24.137058 -49.826023 2.8336556 -0.92556727 0.24464689 0.28891701
-23.229219 -46.754337 4.1022706 -0.89688557 0.28757608 0.33600029
-26.861486 -65.280174 4.990253 -0.96021575 0.26620534 -0.084382661
-33.328678 -93.62928 -16.586971 -0.99901325 0.014925162 -0.041830488
-18.118961 -34.37051 -28.335699 -0.84345359 0.47345275 -0.2538279
-69.012924 -91.727859 58.871647 -0.011446809 0.97420657 0.22536774
-18.395769 -33.777557 -20.666201 -0.18602261 0.98252952 -0.0056000995
-20.738262 -35.687977 -18.520678 -0.87684441 0.4776718 -0.054530203
-19.874096 -33.908901 -11.913142 -0.80928183 0.5825209 0.075711668
-17.815405 -33.140076 -10.195528 -0.36925027 0.92894441 0.026767371
-19.196743 -33.78278 -6.9461675 -0.81763881 0.56613553 0.10467725
-21.082825 -36.344353 -14.995477 -0.88391054 0.46688169 0.0268983
-11.041477 -32.654732 7.1435199 -0.15913109 0.9106881 -0.38121444
-10.501976 -32.597916 9.1204958 -0.034328703 0.99620861 0.07993672
-19.155725 -36.495514 -0.7059021 -0.8109048 0.534554 0.23808689
-103.63911 -97.526375 82.27565 -0.057351694 0.98315293 0.17355406
4.2876377 -33.001465 20.464787 0.14524649 0.94292021 0.29967481
6.4555016 -34.015347 21.028702 0.25815812 0.83066446 0.49330616
31.394602 -33.764847 34.267162 0.062747866 0.81323993 0.57853568
11.927829 -33.112263 25.569498 0.028959285 0.99952817 0.010235485
2.9111507 -34.213223 23.729496 0.22681177 0.91047311 0.34582534
7.5203223 -35.029129 22.044292 -0.36724156 0.90821052 0.20071703
-22.501522 -40.788788 -7.6985731 -0.94758803 0.2568002 0.1900806
-0.4108395 -34.2439 24.526865 -0.44157499 0.66081494 0.60690624
-0.63350475 -33.300694 21.897072 -0.12628753 0.96517098 0.22912125
0.56346428 -33.474945 23.670805 0.058047321 0.93390167 0.35278651
19.678753 -33.65271 33.093582 -0.15472306 0.71293789 0.6839447
32.822117 -36.199299 35.85778 0.09268456 0.55352038 0.82766229
-23.855848 -41.790848 -4.5719953 -0.89234149 0.42264351 0.15842703
-22.601171 -41.175793 -2.457969 -0.61234242 0.77125061 0.17380787
-13.646914 -36.054367 10.800632 -0.73025548 0.51702309 0.446558
-105.0484 -101.29324 91.301689 0.28391135 0.73333788 0.61774576
11.297822 -34.533222 30.821241 0.0081401691 0.83631533 0.54818821
14.357129 -34.719902 32.230751 -0.28998241 0.6480329 0.70424682
-24.940546 -45.385315 -4.9864616 -0.94278985 0.28564757 0.17190924
-16.297503 -37.936577 9.1097288 -0.74329835 0.53591275 0.40038121
-12.704455 -37.259663 13.858945 -0.68166494 0.52736473 0.50716799
-1.2709918 -36.810558 25.265869 -0.54724705 0.4663271 0.69502497
0.80475897 -36.33651 26.47858 -0.51997972 0.46355936 0.71744943
50.174133 -42.891941 33.607037 0.35606217 0.54523748 0.75890434
-23.738998 -44.593792 -2.0923316 -0.93133944 0.2690407 0.24540575
-17.849131 -39.924374 8.4673948 -0.81436574 0.42917925 0.39065787
-6.6107974 -38.050327 21.98484 -0.58679914 0.50555962 0.63251567
13.211999 -39.526882 35.069649 -0.32313365 0.45652407 0.82895744
16.870483 -37.226189 34.503513 -0.19853956 0.5321309 0.82305449
-17.385954 -40.919781 9.1483974 -0.6077038 0.68699294 0.39841795
33.819065 -42.220222 38.272289 0.094511651 0.41701394 0.90397286
4.1206365 -41.019867 31.571476 -0.4169232 0.46417901 0.78148121
17.771935 -40.360031 36.881527 -0.16744207 0.41346624 0.89499098
-8.4773932 -40.694847 22.105652 -0.62744331 0.47238138 0.61900783
-5.3064861 -41.15345 24.75983 -0.51700717 0.46270484 0.72014421
15.307362 -40.80687 36.287785 -0.31695634 0.42110765 0.84982765
17.25419 -41.884762 36.701 -0.035417557 0.42949596 0.90237397
10.394924 -41.582191 34.060429 -0.36989811 0.42264387 0.82737386
11.678127 -44.492283 36.522362 -0.31162879 0.34479469 0.88544011
16.510489 -42.871559 38.027409 -0.21781467 0.43025345 0.87603581
11.171996 -42.824154 35.973656 -0.38820952 0.4894304 0.78086567
-18.547134 -45.291016 12.499559 -0.79894292 0.35224286 0.48745784
-14.058593 -45.656025 19.309177 -0.77867723 0.3345038 0.53081906
-22.275894 -51.353382 8.6009293 -0.8905822 0.21729195 0.39955923
-20.720016 -48.429428 10.519925 -0.85738808 0.25377348 0.44775522
-7.4489231 -44.919941 25.735258 -0.62646079 0.28492957 0.72550803
15.768216 -45.405144 38.156544 -0.25596878 0.30082825 0.91868514
18.820408 -48.683529 40.289043 -0.17570585 0.28196195 0.94319928
10.736255 -48.238667 37.750153 -0.30146489 0.29803801 0.90569991
-8.5677309 -48.091579 26.117922 -0.64438826 0.27420604 0.71384513
15.493258 -50.421196 39.925758 -0.27506292 0.26542222 0.92406249
-12.987446 -53.624104 23.807129 -0.71115631 0.24082232 0.66050076
-9.8901548 -49.91872 25.527468 -0.68110001 0.24977763 0.68826884
-24.339983 -57.966553 7.0723424 -0.92392969 0.18803491 0.33316204
-8.9680758 -52.865578 27.3153 -0.65418273 0.24351381 0.71606284
-6.0024877 -48.637966 28.489305 -0.62025988 0.26594278 0.73793781
-5.3066506 -51.826378 30.256674 -0.60000551 0.24221313 0.76244748
-5.1399493 -54.525196 31.180841 -0.5703885 0.22250564 0.79066312
-24.059776 -56.757271 7.9011312 -0.89735216 0.22258389 0.38107166
-21.91748 -56.757416 12.434946 -0.86245769 0.20308797 0.4635967
-25.438877 -61.127583 10.932373 -0.6639725 0.73570853 0.13369164
-22.590233 -59.716335 11.892344 -0.7361986 0.63050151 0.24592566
-7.6324501 -56.625256 29.743647 -0.60173357 0.20292059 0.77248955
-23.432243 -60.315403 15.002928 -0.73259753 0.59973645 0.32189596
10.005949 -55.578583 39.197174 -0.33534363 0.23723038 0.9117381
10.407796 -57.919605 40.084312 -0.34081373 0.1825051 0.92224616
15.158264 -59.983894 41.789715 -0.21911217 0.16516757 0.96161824
-113.17747 -98.885933 84.261757 -0.17590494 0.98420984 -0.019707929
-25.856871 -63.010792 12.264261 -0.86062014 0.2831322 0.42328379
11.617115 -60.374069 40.776703 -0.30477396 0.16144466 0.93864179
-19.508593 -62.213501 20.285755 -0.63411939 0.60076964 0.48679414
-21.905144 -63.42746 20.731688 -0.45366648 0.89035589 0.038121134
-23.805138 -64.677872 21.042103 -0.69364351 0.71456999 -0.090820797
-22.89715 -63.683327 22.96184 -0.30111471 0.91776592 0.25891262
-6.1501303 -62.332401 32.227646 -0.59176695 0.18171129 0.78536165
8.8090219 -62.27676 40.122505 -0.34615964 0.18724979 0.91929919
-30.993366 -75.388977 -5.0672708 -0.98429072 0.14561385 0.099841565
-30.673023 -74.957771 -2.5380523 -0.97478616 0.11394732 0.19185416
10.876358 -67.600807 41.871395 -0.3110145 0.16109732 0.93665236
-31.399498 -79.571785 -2.9707189 -0.9686141 0.12108563 0.21708286
-5.0393162 -65.494469 33.716812 -0.53321075 0.19908173 0.82222426
2.8201678 -67.13092 38.988522 -0.41331351 0.15659039 0.89702362
-113.34599 -99.099701 88.760033 -0.12108116 0.99022663 0.069214463
-24.651983 -79.349075 19.548622 -0.81940693 0.1741332 0.54612261
-23.089386 -77.236862 21.219669 -0.81509942 0.14190114 0.56167352
-95.051147 -101.70526 88.726051 0.18991953 0.79907453 0.57044756
-6.4814935 -76.577888 34.710258 -0.51134169 0.12055242 0.85088003
-23.394173 -80.647743 21.627047 -0.81608498 0.0067516631 0.57789242
-7.6821513 -78.754478 34.553185 -0.37225121 0.13762015 0.91787243
-21.207169 -83.091316 22.29722 -0.45756981 -0.63637632 0.62101126
-6.0577288 -80.882721 35.790508 -0.53221881 0.076927014 0.8431046
-5.6326561 -83.841118 36.187176 -0.52822101 0.15237768 0.83532244
-32.467266 -87.652229 12.194412 -0.65816897 0.75280398 -0.0099830264
5.9122438 -84.176064 42.248703 -0.31781545 0.078024946 0.94493675
-34.234344 -100.42472 -11.763041 -0.88626206 0.4631831 0.0010170359
-33.31583 -87.988487 15.657895 -0.51255339 0.79589552 -0.32224113
-32.742863 -97.282387 -7.6484432 -0.99334538 0.0085291164 0.11485716
2.1720955 -85.514175 40.830063 -0.41717458 0.057220168 0.90702325
-32.383301 -98.242752 -3.3776808 -0.9602809 0.25053573 0.12285113
16.758808 -87.937325 45.493359 -0.18456978 0.091909133 0.97851247
-33.323719 -98.915428 -8.8044615 -0.90801454 0.4076055 0.09678562
-34.675663 -100.71163 -10.186486 -0.8227784 0.56376398 0.072151683
7.9611607 -86.035278 43.102734 -0.31940004 0.12243795 0.93967694
15.646509 -91.161293 45.665623 -0.19203003 0.071518153 0.97877967
-33.77161 -100.55817 -5.4435811 -0.88232899 0.44775242 0.14495943
10.842373 -88.310425 44.303646 -0.30517983 0.10702354 0.94626164
-9.502923 -90.177185 33.824409 -0.45366693 0.032075793 0.89059389
6.5826797 -88.905373 42.984451 -0.33409354 0.10341038 0.93684995
11.876781 -90.574051 44.878906 -0.2556206 0.085529976 0.96298641
13.355842 -94.084099 45.298279 -0.21816647 0.076416329 0.97291523
55.566563 -104.11475 46.351898 -0.0010913539 0.98608798 -0.16622111
9.4752645 -94.086594 44.482773 -0.28149688 0.041278005 0.95867395
14.821831 -97.25071 46.212963 -0.19727641 0.031128069 0.97985357
17.973171 -95.114349 46.337692 -0.14380936 0.050478999 0.98831707
16.967871 -98.359879 46.161331 -0.13404751 0.22961554 0.96400625
-43.277847 -86.83046 37.449471 -0.12251178 0.99094182 0.055001557
11.958936 -97.621857 45.20649 -0.27901897 0.0925451 0.95581585
6.9482384 -96.666542 43.490997 -0.36111575 0.025986899 0.93215889
9.926506 -99.31073 44.806385 -0.29524416 0.32766727 0.89747703
-46.535686 -87.795219 43.149277 -0.04460723 0.98542416 0.16416271
-50.661339 -87.92382 39.932156 -0.17801544 0.98402494 0.0023298187
13.52287 -100.9371 46.593727 -0.204374 0.39845762 0.89412683
17.046095 -101.89651 48.002876 -0.13199948 0.49600086 0.85823029
-58.737297 -89.578644 42.030121 -0.29048458 0.93911904 -0.18350546
-48.734814 -92.845436 54.013409 0.30213723 0.76071435 0.57447952
-64.564156 -90.367081 52.113255 -0.10936672 0.98962545 0.09316875
-64.268356 -91.185524 57.264004 -0.023936396 0.97596174 0.21662335
-71.887001 -91.786179 53.403397 -0.22580624 0.97134495 -0.074166231
-68.866173 -91.131493 54.149876 -0.14218609 0.98804766 0.059539672
-79.769791 -93.10981 62.451672 -0.15561496 0.98753297 0.023718514
-87.237717 -94.465103 64.443405 -0.25414446 0.96286124 -0.091153435
-88.702156 -94.642006 70.088364 -0.17504296 0.98375785 0.039755397
-91.850182 -95.26445 68.641792 -0.15655889 0.98717201 -0.031319145
-91.098701 -95.470535 74.301445 -0.014310375 0.97898984 0.20340653
-88.363007 -95.379204 73.347336 -9.9857338e-05 0.96399903 0.26590586
13.620968 -55.975014 40.489391 -0.2627022 0.21431664 0.94077408
11.686268 -63.875629 41.523853 -0.27858096 0.17862196 0.94365615
1.6088668 -100.44664 42.298828 -0.46545467 0.33304644 0.82001954
7.2577415 -99.101494 43.637985 -0.29447079 0.47649384 0.82839644
-22.513254 -39.236 -9.5628605 -0.89460391 0.4431909 0.057145648
-75.535522 -92.440475 60.765846 -0.10621879 0.99248672 0.060726415
-111.18388 -98.653107 81.723854 -0.19557059 0.98038286 -0.02452717
-91.006317 -95.489761 64.747894 -0.30170271 0.9341681 -0.1905399
-23.163292 -40.919979 -8.3608837 -0.67975241 0.73202199 0.04561257
-30.804079 -86.158943 15.14879 -0.72581613 0.68657207 0.042540237
-23.028261 -83.512451 20.523859 -0.75179768 -0.39162222 0.53050208
-47.048412 -87.245209 36.774441 -0.13315208 0.99044776 0.035828505
2.6904368 -34.430359 26.770332 -0.40726727 0.7367447 0.5397597
-102.74298 -102.72978 91.627396 0.15387306 0.83260661 0.53206146
-92.701248 -104.94677 88.070854 0.52810198 0.12432957 0.84003001
-112.34064 -100.39803 92.341606 0.16052632 0.88894129 0.42896929
-94.10733 -105.51907 89.259193 0.57779104 0.19121373 0.79347014
-14.881557 -33.479912 6.304143 -0.62731689 0.76470029 0.14733288
-15.108068 -35.233002 7.8218989 -0.76853275 0.47009233 0.43401676
-16.747629 -35.853466 5.1519156 -0.79115713 0.49834794 0.35456973
-18.13242 -38.635086 6.376441 -0.79676121 0.4825595 0.36374146
-5.6596375 -33.814243 19.444689 -0.53890675 0.54000127 0.64651233
-19.83147 -38.963737 3.4443698 -0.87003022 0.37681249 0.31789914
-2.9945908 -33.514137 21.401537 -0.54024875 0.56643277 0.62232238
8.9750996 -33.230812 26.25997 -0.23318975 0.97198462 0.029468536
14.354909 -34.286942 27.84425 0.55800575 0.67151618 0.48754039
15.335049 -33.278008 25.0632 0.20681785 0.95489407 0.21308111
-20.654896 -40.624069 1.2792125 -0.76936388 0.60171497 0.21451864
5.9034586 -33.115734 27.151918 -0.19706714 0.83893734 0.50729549
-104.41891 -103.69813 94.952057 0.2119637 0.84917313 0.483711
-100.98699 -103.22997 93.152756 0.38681844 0.61055869 0.69107854
-21.130632 -41.760361 4.7390409 -0.71790087 0.64441186 0.26334709
-19.254824 -40.823139 5.4436307 -0.79128885 0.54163498 0.28371349
-7.7637296 -35.015224 18.635006 -0.64076424 0.54452056 0.54121947
7.5020599 -33.391933 28.636538 -0.17453888 0.86743158 0.46593842
16.158928 -35.326344 27.769199 -0.62095356 0.774746 -0.11910179
21.68638 -33.696861 33.141113 0.0031176889 0.93316495 0.35943493
37.789188 -34.85556 34.324455 0.10292667 0.60193223 0.79188621
43.71785 -36.894249 34.137093 0.24100113 0.48306403 0.84176451
-21.978296 -41.500893 1.6377867 -0.8671425 0.41515225 0.27515915
-20.986368 -43.314365 5.5504026 -0.87439352 0.30592978 0.37662035
23.951788 -34.700722 34.677269 -0.13286446 0.67536485 0.72541666
5.4590425 -35.69582 29.243198 -0.43259376 0.50756311 0.74514586
-19.819267 -41.457462 7.633832 -0.78153044 0.49489129 0.379859
-109.02988 -100.94968 93.233032 0.25534087 0.79707086 0.54724675
36.518616 -37.066463 35.797737 0.1337367 0.47431216 0.8701393
39.113438 -37.315639 35.499348 0.17971067 0.48588508 0.85534775
-17.608181 -41.460735 11.484065 -0.71028447 0.53102493 0.46206987
29.844549 -34.445393 34.869629 -0.026933815 0.65978378 0.75097257
-10.845261 -39.762871 18.84524 -0.68985641 0.45263523 0.56499505
-1.8928547 -39.847355 27.119598 -0.56106353 0.43865955 0.70198685
20.324684 -36.469448 34.696175 -0.18033476 0.51960093 0.83516121
31.362545 -39.221104 37.566788 0.021400699 0.43695077 0.89923084
7.8069205 -37.07304 31.437647 -0.34286165 0.4807505 0.80704701
9.5159941 -39.269676 33.039307 -0.31665352 0.42376608 0.84861821
40.273708 -39.301643 36.224068 0.22142203 0.45190996 0.86414671
-10.918301 -41.372349 19.573683 -0.61539888 0.60671884 0.50316644
1.4104551 -40.112103 30.038528 -0.48012352 0.43336514 0.76267695
26.356035 -37.135983 36.076477 -0.066353388 0.47383532 0.87811005
38.083801 -40.298832 37.477085 0.15231128 0.30380574 0.94048041
43.134823 -39.93784 35.965282 0.25071359 0.43180162 0.86642373
-9.3956871 -42.440338 23.260784 -0.60347354 0.46711898 0.64623481
29.420387 -41.094307 38.467102 -0.036432926 0.32280052 0.9457655
41.458622 -41.380875 36.927197 0.25483 0.1650988 0.95278752
-11.713435 -42.163071 20.505632 -0.69668388 0.37481624 0.61167336
21.544065 -40.220955 36.996609 -0.1155512 0.31898275 0.9406901
21.791008 -37.855347 35.976757 -0.1404165 0.492697 0.85879731
48.28857 -43.294403 35.346844 0.32090101 0.80598944 0.49739668
-5.6157851 -42.565113 26.404701 -0.49483114 0.53829306 0.68218976
-110.7906 -101.95679 95.339317 0.29068834 0.73730302 0.60982329
-111.01143 -104.14088 96.880127 0.21872604 0.82020575 0.52860337
24.002064 -40.100033 37.558651 -0.11986794 0.32642272 0.93759257
47.093513 -43.452126 36.954285 0.24575324 0.52652854 0.81386304
52.716248 -46.190617 35.081158 0.43484715 0.24345052 0.86697155
6.6056247 -42.615196 33.683884 -0.3334046 0.41770667 0.8451997
24.548182 -42.312157 37.529278 -0.19002262 0.47022974 0.86184418
28.559578 -42.404484 38.229511 -0.0094511341 0.51508588 0.85708648
46.342979 -45.531368 37.412025 0.31191123 0.1691573 0.93493158
49.018421 -44.224773 36.724342 0.38281941 0.16417746 0.90911782
-3.6736975 -42.895908 27.946785 -0.50937235 0.4422012 0.73823977
9.3631878 -43.463875 34.997978 -0.32687235 0.48989546 0.80818129
-107.24187 -103.44461 94.47821 0.21502799 0.83332694 0.50924367
19.358299 -42.5019 37.253551 -0.090470478 0.49639654 0.86336869
26.493534 -42.840702 39.011608 -0.091713503 0.5473848 0.83184046
-13.889419 -47.397762 20.507725 -0.72680211 0.25289911 0.63859278
-10.531184 -45.896179 23.228519 -0.68491453 0.260001 0.68065518
19.752028 -43.438042 38.620167 -0.16006692 0.40649238 0.89952356
23.84664 -42.863884 39.032364 -0.10367744 0.58887184 0.80154914
-12.622415 -49.617672 22.457479 -0.71257758 0.25263321 0.65453011
2.1208088 -42.899574 32.105209 -0.44518384 0.405357 0.79843414
31.099909 -43.329903 39.975945 0.032638613 0.47169402 0.88115799
49.340435 -46.536819 36.515553 0.31410012 0.20720381 0.92650294
50.782654 -48.16608 36.618389 0.38069162 0.26239708 0.88669139
56.685471 -48.859192 34.055096 0.48110589 0.24658699 0.84126812
25.834278 -45.256741 40.044205 -0.06639605 0.27081215 0.96033973
42.81496 -45.263672 38.456028 0.27767244 0.27907798 0.9192462
32.533054 -45.009285 39.746552 0.098054163 0.3030186 0.94792676
47.466721 -50.096462 38.464596 0.31360441 0.23786786 0.91927749
57.452805 -52.065758 34.167259 0.47027555 0.17059736 0.86587375
3.5531435 -46.452843 33.836899 -0.42891741 0.31839994 0.84537047
45.227818 -48.287266 38.479679 0.27377138 0.25049227 0.9286027
53.768402 -49.54929 35.523651 0.42899781 0.24233499 0.87019229
0.053387254 -45.884342 31.819746 -0.51551062 0.33668813 0.78796571
20.906069 -45.588161 39.44989 -0.15489745 0.29630765 0.9424482
31.039248 -46.040665 40.236835 0.026652396 0.20899348 0.97755378
21.657633 -48.067089 40.239872 -0.10414756 0.22631954 0.9684692
7.4684305 -45.88369 35.873341 -0.3635402 0.34108245 0.86689168
25.829407 -47.382992 40.583309 -0.0881363 0.25171098 0.96378088
41.055084 -48.382774 39.721729 0.22059421 0.23042262 0.94775718
-2.0403724 -49.560341 31.867086 -0.55007029 0.25230896 0.79609227
33.158249 -48.737377 40.947273 0.064353764 0.28402576 0.95665461
37.613632 -49.23119 40.660202 0.15525651 0.23023504 0.96067017
42.450794 -51.261333 39.980843 0.22881727 0.20356143 0.95194823
5.1698842 -49.287182 35.74358 -0.42067346 0.27962437 0.86304349
8.9194393 -49.335846 37.070148 -0.36323541 0.21058115 0.90758777
6.7717767 -50.435238 36.673141 -0.35344389 0.20978753 0.91162848
-127.63215 -101.60165 96.834274 -0.12129863 0.98348635 0.13431771
2.1450357 -52.265579 35.250206 -0.45701674 0.17326371 0.87241924
10.055704 -50.720562 38.031086 -0.35622093 0.23534659 0.90427792
24.974615 -50.120499 41.22427 -0.091264553 0.25499153 0.96262664
-20.741825 -59.423565 17.666601 -0.53640509 0.77463734 0.33497262
-18.076742 -58.962326 18.754025 -0.67821002 0.47313178 0.56229669
24.990677 -53.552464 42.050716 -0.057250522 0.19516596 0.9790979
-20.060101 -59.310501 19.886417 -0.33371574 0.79637611 0.50439954
-114.40246 -103.62901 98.524216 0.34959611 0.6874302 0.63657069
4.8511438 -54.286846 36.678795 -0.38985452 0.22066568 0.89404708
20.658098 -53.542931 41.681446 -0.1503184 0.2260599 0.96244556
16.99851 -52.399899 40.560951 -0.18719853 0.21540865 0.95841318
8.6621962 -53.84024 38.203671 -0.37429452 0.2254907 0.89947617
35.176224 -54.727356 42.020245 0.095887095 0.17367879 0.98012316
-22.127811 -60.827579 17.418156 -0.77097249 0.32863012 0.54553068
-19.938173 -60.421776 19.82675 -0.69904363 0.18536922 0.69063467
2.0175912 -54.732857 35.36776 -0.47003555 0.23863301 0.84977698
16.563963 -56.534817 41.398537 -0.20058815 0.185601 0.96193385
21.452288 -55.511024 41.989655 -0.11558631 0.13409445 0.98420453
-2.7985117 -57.133785 33.679649 -0.51877934 0.25285634 0.81665885
6.6913109 -56.616932 38.22155 -0.35815477 0.21546684 0.90845978
22.377556 -57.604012 42.361153 -0.11536658 0.17188659 0.97833818
8.2617855 -58.408848 38.85289 -0.36369964 0.17143843 0.91560435
33.301704 -59.057987 42.952442 0.069316112 0.16954091 0.98308247
3.0026522 -57.345921 36.866692 -0.4263491 0.24196333 0.87159634
2.2398257 -60.288277 37.111671 -0.42284435 0.20952412 0.88164747
29.175034 -60.028481 43.262684 -0.0034194619 0.16944131 0.98553431
18.76379 -58.230183 42.042404 -0.13579148 0.19466729 0.9714244
-125.87788 -102.2092 101.64089 0.023778282 0.94455254 0.32749832
1.908594 -62.841984 37.519314 -0.38920191 0.19770901 0.89968497
5.3787899 -60.872017 38.639484 -0.34524387 0.19380966 0.9182834
23.727993 -60.768364 43.181683 -0.069291703 0.1930147 0.97874612
21.871668 -63.215614 43.606861 -0.1392259 0.15704189 0.97772896
29.525473 -64.490822 44.026711 0.027152114 0.15270883 0.98789817
26.729216 -64.657539 44.064281 -0.044638462 0.15059611 0.98758709
-2.2684824 -64.978127 35.78091 -0.57045573 0.12682676 0.81147718
0.27665669 -65.317612 37.280499 -0.46908459 0.14205307 0.87165391
20.467901 -66.057022 43.660168 -0.13159506 0.16042238 0.97823685
-28.298374 -76.227066 15.725119 -0.55231345 0.83363396 -0.0020234375
7.7277231 -67.12355 40.670116 -0.32756525 0.17790288 0.92792863
-17.983784 -72.679337 26.760139 -0.72218007 0.095012255 0.68514866
15.075084 -69.630119 43.367542 -0.24244058 0.14200895 0.95971656
25.527033 -72.744125 45.20681 -0.043502096 0.13488857 0.98990536
-18.745977 -76.314278 26.622549 -0.71583682 0.24552469 0.6536783
-2.9087045 -71.079056 36.68005 -0.53722924 0.1496152 0.8300603
3.1694918 -71.917625 39.720989 -0.40947327 0.17203461 0.89595515
6.6603403 -72.615257 41.341541 -0.36212185 0.17590044 0.91538334
-29.108498 -80.932816 14.255713 -0.81306022 -0.25558081 0.52307886
-15.373095 -75.723427 28.746367 -0.88115019 0.31563714 0.35206181
-3.0508564 -75.970428 37.229187 -0.54829639 0.095769331 0.83078235
-29.391819 -83.831215 12.399143 -0.83058602 0.4597483 0.31425816
-27.92902 -83.453812 14.857283 -0.82910144 0.34427667 0.44052738
-19.20936 -77.87011 25.398912 -0.83004504 0.079276547 0.55203301
-1.0917251 -75.848282 38.296719 -0.47617877 0.081413716 0.87557155
11.07018 -72.831802 43.196724 -0.58428991 0.28820878 0.75864422
-17.895201 -77.296547 29.499754 -0.81932116 0.40684617 0.40396661
2.8001108 -74.586708 40.169323 -0.42392799 0.13058031 0.89623314
11.653163 -73.960381 45.056778 -0.22019525 0.047837343 0.97428215
41.944553 -66.511169 42.767944 0.23642774 0.14644918 0.96054912
-20.819946 -79.29612 24.811228 -0.69362897 0.050518326 0.71855873
-19.593307 -80.490364 25.575573 -0.82651234 0.063955851 0.55927366
19.965885 -74.193596 44.592075 -0.11313431 0.097072653 0.98882633
-23.782921 -83.275795 18.931025 -0.8869561 -0.26022962 0.38156196
-21.811676 -81.651604 23.327145 -0.70362908 -0.28861332 0.64931393
27.20343 -75.381653 45.469929 -0.031355053 0.10940483 0.99350268
31.34827 -75.70652 45.479733 0.057280436 0.11936095 0.99119723
32.773262 -79.14653 45.830082 0.076166257 0.10086332 0.99198043
5.7007103 -76.419273 41.746185 -0.38954073 0.095114641 0.91608477
11.071526 -77.067238 43.48185 -0.51856929 -0.11754929 0.84691685
13.627377 -76.237305 43.832634 0.056244962 0.11790831 0.99143034
0.54661655 -77.907204 39.423489 -0.46060845 0.067167625 0.88505846
9.3275433 -76.71666 43.233387 -0.40773532 0.057905074 0.91126221
12.791844 -78.535576 44.026608 0.14756887 0.032097004 0.98853087
19.73308 -78.759827 45.447716 -0.12189679 0.088183507 0.98861766
11.445203 -77.393799 44.43605 -0.48055649 0.06208032 0.87476367
28.015244 -77.824829 45.817112 0.001813637 0.10554782 0.9944126
6.2588997 -80.745903 41.978062 -0.33982661 0.035130139 0.93983167
10.345143 -79.663017 43.464367 -0.46235499 -0.0059655979 0.88667488
16.876408 -76.462296 44.615269 -0.17928872 0.12299204 0.97607815
-2.2230322 -79.66301 37.8437 -0.49214792 0.093059629 0.8655231
11.677366 -79.502075 44.971336 -0.47178754 0.093969874 0.87669057
-2.4122062 -82.581947 38.402607 -0.4942435 0.091535106 0.86449105
1.4803449 -80.755806 40.030174 -0.42711762 0.093291491 0.89937055
2.7210486 -82.074959 40.968323 -0.3945508 0.099287413 0.91349423
9.6272526 -82.594582 43.026962 -0.37070435 0.062393691 0.92665273
11.460569 -81.014961 44.43644 -0.46996537 -0.043188509 0.88162762
13.647169 -82.408844 44.681564 -0.18110959 0.019297769 0.98327357
21.960262 -81.072472 45.640446 -0.08398737 0.076364435 0.99353647
19.609039 -83.969284 45.817692 -0.11858036 0.087852255 0.98905039
23.670113 -85.389099 46.246521 -0.056037623 0.11027452 0.99232012
30.539408 -85.007935 46.238926 0.015960837 0.039549302 0.99909014
-107.58444 -104.37547 97.914665 0.39799172 0.59261024 0.70029688
-105.35153 -104.66174 96.808502 0.53966033 0.28079969 0.79367393
31.04804 -87.714432 46.418751 0.041388005 0.097470775 0.99437743
-15.050081 -89.219055 34.743149 0.30360648 0.35262895 0.88514173
4.2136793 -87.748909 41.783764 -0.37555012 0.10420514 0.92092532
25.078077 -88.110413 46.750813 -0.0604661 0.073516265 0.99545926
34.331802 -87.048416 46.118488 0.082360595 0.083897471 0.99306494
20.568842 -88.167824 46.13496 -0.13333392 0.075815156 0.98816705
32.792652 -91.294609 46.680573 0.094330132 0.061967537 0.9936105
59.557999 -97.37513 37.580383 0.52077103 0.013324629 0.8535924
27.369471 -88.86068 46.675831 0.028435312 0.11401652 0.99307185
36.362122 -90.743927 46.245831 0.15301031 0.055072907 0.98668879
22.697033 -90.356728 46.574017 -0.074158415 0.056462061 0.99564677
29.147125 -89.877861 46.746334 0.034675628 0.076834865 0.99644071
-114.47259 -107.10475 102.58314 0.28952619 0.42964351 0.8553251
-2.6197836 -92.245956 39.071922 -0.51011372 -0.020596061 0.85986036
0.6740455 -89.852562 40.583412 -0.42658302 0.11032694 0.89769417
59.047066 -99.313141 38.123798 0.53995734 0.035938237 0.8409248
56.202076 -99.552795 39.980793 0.4872703 -0.012001481 0.87316877
31.606327 -93.784134 46.882496 0.073535912 0.049944796 0.99604112
36.972275 -93.986679 46.225254 0.18051043 0.04863793 0.98236972
-120.1984 -101.76862 98.486862 0.089497231 0.91890723 0.38418698
-4.3251567 -95.151123 38.18251 -0.47652775 -0.025813611 0.87878042
35.892818 -96.769791 46.47319 0.13161443 0.0028801328 0.99129677
31.115841 -98.193298 47.138329 0.067252383 0.033941515 0.99715859
33.323891 -97.756821 46.886517 0.14205429 -0.04136762 0.98899412
-2.2016463 -97.350555 38.63784 -0.39304945 0.13040049 0.91022408
25.763508 -94.91198 47.040916 -0.042196445 0.049781278 0.99786836
-49.882233 -88.484283 45.750584 -0.014156196 0.97741902 0.21083562
-114.06869 -104.90508 99.836357 0.13099496 0.88445282 0.44786564
28.67683 -97.271576 47.030128 -0.03185191 0.015044468 0.9993794
-56.094162 -88.905655 44.841518 -0.17068183 0.98528337 -0.0091908537
-52.560188 -88.292587 43.417385 -0.14027219 0.98931432 0.03976173
-6.1364608 -98.853958 37.26598 -0.47861993 0.29702878 0.82625473
22.205633 -95.889412 46.789391 -0.098191604 0.044073489 0.99419111
33.436554 -102.47901 48.010254 0.10905293 0.61853439 0.77815348
-37.471062 -91.908089 48.323078 0.23740196 0.96037173 -0.14603591
-35.48354 -93.405304 48.098919 0.68746877 0.36050186 0.63041663
36.271667 -102.88269 48.229794 0.13295545 0.69353813 0.70804495
19.814859 -99.402611 46.69487 -0.096117966 0.2777898 0.95582122
29.507971 -100.4707 47.582218 0.054270167 0.43104845 0.90069532
30.251984 -102.64429 48.838997 0.12508054 0.8076188 0.57628709
20.697502 -101.88644 48.660709 -0.031488523 0.65682077 0.75338894
-37.139763 -96.672058 48.968586 0.53040349 -0.0054293093 0.84772795
-37.396145 -93.412506 49.325062 0.46876749 0.077201016 0.87994146
-123.33513 -102.98871 102.35136 0.24011047 0.8147344 0.52778298
-40.034672 -95.778259 51.14489 0.56682175 0.064008012 0.8213501
-34.754154 -96.520905 47.368252 0.61449617 -0.033176471 0.7882219
-110.72186 -104.71887 99.918434 0.14371899 0.85783112 0.49342752
-46.647167 -93.40844 53.195465 0.47860584 0.69930619 0.53094947
-39.074703 -98.506897 49.809013 0.56271911 -0.19528122 0.80325121
-48.072834 -94.140457 55.432308 0.3585355 0.67264485 0.64730304
-44.90477 -94.947136 54.075962 0.48968378 0.42540506 0.76107836
-42.950596 -97.868958 53.684505 0.54727638 -0.016608043 0.83678722
-42.717239 -96.253159 52.977737 0.57076454 0.13756478 0.80950838
-109.56915 -105.52506 99.680565 0.54349381 0.14609082 0.8266027
-49.61356 -95.337715 56.84333 0.44089699 0.40256199 0.80221796
-61.853973 -91.890282 58.259453 0.14602409 0.8896262 0.43271494
-49.039028 -97.551933 57.41156 0.59660858 0.0091531863 0.80248016
-55.528191 -94.96331 60.8321 0.47184193 0.59399861 0.65156019
-54.156807 -95.442978 59.723377 0.37633449 0.70179123 0.60486484
-61.62339 -93.482803 60.75201 0.21505874 0.80330127 0.55538881
-50.536301 -98.336449 58.444168 0.57706761 0.075759687 0.81317484
-53.039085 -98.416557 60.233223 0.55210704 0.17495699 0.81521034
-72.411606 -92.695107 63.00835 0.013280298 0.97115541 0.23807763
-68.040619 -94.978821 65.195641 0.2340046 0.81703049 0.52697533
-75.521194 -92.884415 64.175789 -0.017084122 0.97515798 0.2208512
-58.188595 -94.96685 62.171062 0.42147124 0.55453289 0.71753412
-55.645069 -98.827934 61.909889 0.49803039 0.24284004 0.83246285
-75.433189 -93.752823 66.350136 0.08173506 0.92745697 0.36488765
-64.471306 -94.697853 63.187637 0.19462906 0.82792205 0.52598929
-62.288364 -95.961922 65.172028 0.39923459 0.58931983 0.70236307
-52.104095 -100.79189 58.967621 0.55222386 -0.21220309 0.80623734
-77.437599 -93.894089 67.095474 0.067129999 0.94796282 0.31122363
-73.179817 -93.991531 66.389404 0.2018863 0.84301573 0.49856433
-83.217682 -93.57457 63.989277 -0.16113403 0.98690599 -0.007239955
-84.933174 -93.884743 66.748123 -0.086570948 0.99228656 0.088729486
-80.164062 -93.50193 66.2136 -0.062277377 0.98163956 0.18029222
-69.756256 -95.723495 67.124603 0.21658155 0.8103224 0.54449064
-63.996964 -97.730263 67.220764 0.45006809 0.42100424 0.7875241
-81.491516 -94.242386 69.127373 -0.014779991 0.97640687 0.21543239
-75.810287 -94.720787 68.908165 0.24795143 0.83068979 0.49847224
-72.454811 -96.549759 69.141327 0.23973446 0.80209196 0.54696971
-79.813103 -94.850121 70.965492 0.12379178 0.90589589 0.40500388
-69.751167 -97.367912 70.054245 0.27777749 0.76023996 0.58726048
-86.11956 -94.45295 70.651619 -0.015195175 0.97728437 0.21138671
-83.217117 -95.256111 72.65612 0.15372956 0.9000864 0.40769064
-82.84671 -94.728813 70.856522 0.048825078 0.95603573 0.28915712
-78.380585 -95.975632 71.891487 0.32556954 0.70791245 0.62678903
-75.738869 -97.312729 71.338951 0.3109957 0.80728287 0.50157344
-85.633102 -95.138008 72.5886 0.026651163 0.95078897 0.3086907
-65.423882 -99.006287 68.294266 0.49383751 0.34692779 0.7973491
-68.689598 -98.152481 70.288589 0.50500512 0.38211936 0.77392161
-116.79663 -105.72414 102.47362 0.25318441 0.71732289 0.64911133
-75.357834 -97.674446 72.751503 0.12975606 0.90941948 0.39511964
-72.521217 -98.014694 72.536858 0.41281885 0.61985373 0.66735446
-84.893211 -96.982101 76.381874 0.26856372 0.76650828 0.58338547
-81.900475 -96.403557 74.215988 0.26487848 0.77076799 0.57944459
-80.210182 -98.31633 74.808533 0.21257986 0.83390713 0.50932187
-75.62413 -98.269043 75.222672 0.36523294 0.58949274 0.72048819
-78.255463 -98.666763 75.842941 0.35691181 0.64005291 0.6804015
-82.47448 -98.65947 77.258018 0.18106563 0.89364362 0.41062906
-72.535759 -101.47857 73.5215 0.53393716 0.22273193 0.81566018
-82.843292 -99.364059 80.049049 0.30573648 0.71210986 0.63200068
-85.404953 -99.152496 78.866402 0.14247139 0.86154741 0.48727608
-95.845177 -96.86412 79.720268 0.061149672 0.95046467 0.30475828
-80.943398 -99.120499 78.632652 0.28390449 0.85140771 0.44102511
-89.988373 -99.365822 81.316895 0.18980107 0.83954436 0.50905877
-79.742485 -100.5457 78.258316 0.56451303 0.31886739 0.76134658
-85.823997 -99.939445 81.900223 0.38605505 0.63202429 0.67194259
-82.448547 -101.8029 80.486778 0.51840854 0.20603706 0.82994056
-78.666428 -102.72031 78.224617 0.55107951 0.22806697 0.80268109
-81.041832 -103.57863 79.857819 0.54320401 0.11313713 0.83194309
-88.157082 -100.22738 84.000229 0.4312048 0.54410225 0.71973276
-83.268852 -103.93215 81.42794 0.5604651 0.18825997 0.8064968
-102.12791 -98.323624 85.620094 0.067576252 0.93423665 0.35019323
-95.912918 -99.094452 84.018852 0.2965816 0.76387352 0.57318103
-88.595566 -103.35356 84.799164 0.54265934 0.13170625 0.82956272
-84.920792 -104.33407 82.612534 0.53722352 0.14321673 0.83119184
-93.139908 -101.32758 87.492653 0.46088645 0.43368495 0.77427453
-90.425774 -100.99941 85.435837 0.18842342 0.8134023 0.5503391
-100.05581 -99.230499 86.673286 0.28140002 0.78691202 0.54916614
46.144779 -41.04612 35.498013 0.33277404 0.17997217 0.92567348
59.140038 -51.52734 33.086483 0.53107792 0.19399878 0.82481563
-18.33189 -60.370369 20.755909 -0.61043489 0.61956024 0.49347183
40.098721 -93.67691 45.43008 0.21166515 0.026209472 0.9769907
51.898418 -55.170094 37.615063 0.38069364 0.16597511 0.90968376
50.010975 -70.910721 40.860554 0.37682876 0.11660094 0.91891468
50.323006 -44.02166 35.647591 0.36454779 0.67139679 0.64523733
58.801266 -101.97738 38.319302 0.5148049 0.19950584 0.83377057
25.866379 -84.164619 46.161507 -0.020140914 0.077173293 0.99681419
29.595127 -52.771046 41.966217 -0.0031592841 0.21674156 0.97622389
29.954802 -68.589226 44.617054 0.0076159188 0.14443527 0.98948491
27.824545 -92.911369 46.950977 -0.0057661152 0.043448191 0.99903899
9.989974 -71.79628 43.086594 -0.2936869 0.26506832 0.91841543
11.891251 -72.135918 44.213554 0.35897195 0.42474443 0.83110243
16.52029 -80.700455 44.995167 -0.16407037 0.093557797 0.98200202
15.915814 -85.044518 45.262646 -0.18606029 0.043833088 0.98156011
4.4720678 -68.857857 39.854671 -0.35098132 0.15074879 0.92416823
19.618042 -91.669258 46.44342 -0.12023753 0.069423907 0.99031478
-98.675064 -97.847466 83.572273 0.13084947 0.925735 0.35481411
-109.04675 -100.00756 91.049835 0.16618021 0.86839539 0.4671976
-5.157187 -39.623924 24.771204 -0.56676781 0.43578061 0.69919199
6.9661336 -64.172981 39.870121 -0.34561744 0.19037284 0.91886169
-71.483337 -91.932236 59.377525 -0.12531154 0.98762554 0.094301417
-65.754654 -96.178276 66.515999 0.21465203 0.81316131 0.54101127
-97.666733 -101.76182 88.061302 0.26272956 0.81962395 0.50910687
-54.635193 -94.072632 57.87772 0.30017561 0.60958725 0.733688
-27.86441 -75.946701 12.778511 -0.3978796 0.91525519 -0.063243821
-8.6003428 -37.078896 19.108347 -0.67424643 0.46310329 0.57526267
-15.598417 -73.943199 28.302864 -0.70355535 0.084191851 0.70563561
44.441578 -42.505066 35.319363 0.3281458 0.17307664 0.92863607
-43.153572 -94.597092 52.45657 0.30169645 0.7309866 0.61207664
-41.500637 -92.142578 50.509003 -0.37991431 0.92276174 -0.06462007
-42.826237 -93.607933 51.5718 -0.49704367 0.7811892 0.3777445
-51.811527 -96.423103 58.746384 0.4393954 0.47039479 0.76528466
-59.989468 -94.838257 62.067978 0.14608313 0.87430829 0.4628658
-87.570534 -99.447327 80.384315 0.22701046 0.85783803 0.46106404
81.097084 -103.34555 12.739248 0.88263726 0.15634033 0.44329348
80.632454 -101.39196 14.359148 0.83425778 -0.23087633 0.50070953
32.456387 -103.33128 49.999199 0.043801423 0.98651415 0.1577065
88.029457 -95.551491 -15.422576 0.99960476 -0.025361951 -0.012126537
0.076434858 -33.437195 5.1282582 0.045451593 0.99762207 -0.051810395
54.567417 -38.961464 -52.845276 -0.044259131 0.99662757 0.069098338
52.133209 -37.991013 -55.272213 0.093001053 0.99561304 0.010270893
55.549091 -38.581776 -52.440048 -0.070089102 0.99346018 -0.090135001
59.911335 -38.343796 -51.842781 0.031818904 0.99934 -0.017525429
61.835533 -38.542557 -53.871349 0.22238985 0.9438892 -0.2441636
58.100758 -38.040791 -55.217339 0.022548297 0.995933 -0.087229952
66.932144 -106.23734 -55.790665 0.30290374 0.85851181 -0.41377136
14.242324 -35.472248 29.828897 -0.050788503 0.99465847 -0.089861594
17.267231 -35.382729 26.318012 -0.92738014 0.31049338 -0.20870999
16.592218 -35.16177 26.088753 0.2305762 0.77105337 0.59355807
13.960655 -33.256897 27.176895 0.12540692 0.95501155 0.26874927
16.92514 -33.360519 31.094265 -0.28626513 0.95778447 0.026480298
18.067204 -33.440022 30.063345 -0.44322309 0.87403721 -0.19902821
35.714088 -34.130272 26.705563 0.044347897 0.99701351 -0.063224114
35.174274 -34.216133 24.025858 0.044109613 0.99683511 -0.066137716
37.559921 -34.164207 27.72368 0.027456257 0.99622911 -0.082302645
54.815559 -102.15934 -66.825752 0.44218385 -0.17121461 -0.88043112
60.585129 -47.223473 -59.492397 0.37948412 0.70445526 -0.59977883
60.95142 -45.635391 -58.976768 0.50058097 0.31707665 -0.8055315
57.858379 -39.72612 -45.348934 0.12370037 0.9526521 0.27776301
58.233612 -38.999153 -44.188255 -0.15943041 0.97224838 -0.17121607
24.539366 -33.592052 25.161913 0.057674918 0.99648136 -0.060814876
47.926811 -34.937664 22.655098 0.036740765 0.9973523 -0.06275744
55.508499 -44.646057 -62.196129 0.4837178 0.21916962 -0.84733808
40.369076 -104.32008 -70.893349 0.29410377 0.28607637 -0.91195577
38.928162 -105.03787 -71.913895 0.2341211 0.5376066 -0.81004113
57.276325 -36.345146 2.5977881 0.032350697 0.99795377 -0.055152621
60.088123 -35.946815 11.640258 0.022992386 0.99837822 -0.05207938
64.738167 -36.111244 8.5432863 0.03227713 0.99707222 -0.069319598
66.602478 -36.446533 5.3137512 0.025323503 0.99774563 -0.062147751
70.773857 -36.970573 -4.3504934 0.018674113 0.99963486 -0.019530596
10.00002 -36.003387 -51.55085 0.054861479 0.99817497 -0.025236566
45.553131 -35.593578 8.4957972 0.035554003 0.99758089 -0.059734911
35.170101 -36.720821 -19.625544 0.042961944 0.9986605 -0.028834762
37.781826 -36.704987 -16.21595 0.031026106 0.99873817 -0.039489351
40.424232 -36.634117 -13.193953 0.028182445 0.9979921 -0.056723535
37.829056 -42.996727 -67.56601 0.15014055 0.32415652 -0.93401307
10.852545 -36.174236 -54.816292 0.097792253 0.99305391 -0.065426998
43.209919 -37.962605 -63.027653 0.10835741 0.94980013 -0.29349348
-120.74748 -104.65868 78.059433 -0.43130738 0.73728472 -0.51998568
-119.404 -104.35912 76.578003 -0.58321327 0.80478978 -0.11034307
-116.04656 -102.40404 76.345238 -0.51050282 0.81400079 -0.27710932
-115.91659 -101.24686 78.504745 -0.51056349 0.77108461 -0.38046485
-83.851196 -98.572586 51.498852 -0.51714909 0.67748779 -0.52303642
-113.28466 -103.53617 72.928711 -0.30290407 0.91638917 -0.26168665
-9.9578819 -33.947048 4.763813 -0.17310603 0.95302182 0.24856339
-13.161758 -32.662495 6.653513 -0.16476701 0.96563154 -0.2010164
-11.546509 -34.176323 5.7858396 -0.17095356 0.79829574 -0.57749355
-16.61414 -34.468498 3.7358692 -0.66999382 0.70443076 0.23427649
-11.74854 -85.140175 32.026661 -0.60647541 -0.094975986 0.78940934
-89.893265 -96.698235 59.68433 -0.43371457 0.81548661 -0.38324058
-19.306284 -38.033836 -30.855066 -0.86022234 0.44113973 -0.25576022
-15.903451 -76.340965 29.689108 -0.63325167 0.64662075 0.42529273
-13.785981 -74.74379 31.879633 -0.55909759 0.25858384 0.78774631
-56.149216 -95.559708 58.442226 0.11786 0.94035679 0.31912079
-39.085102 -93.457436 47.460632 -0.16014834 0.950674 -0.26565278
-36.578697 -93.079735 47.177273 0.20279835 0.97895378 -0.022857459
-40.495892 -93.319931 47.884365 0.19836254 0.93589211 0.29113281
7.4964566 -34.483334 26.731853 0.11944912 0.97220391 -0.20137364
7.7847023 -34.452053 25.579872 -0.3590911 0.89535046 -0.26344106
6.4374127 -32.947853 25.930975 0.46458954 0.88005 0.098328859
5.7702985 -32.768265 23.898794 0.21856399 0.42208061 -0.87981683
5.9724503 -35.251228 24.710455 -0.13498132 0.65734106 -0.74140596
4.069128 -34.933788 24.646067 0.15274383 0.9880113 0.022426803
4.531014 -32.937603 25.498129 -0.53726995 0.74688876 -0.39178833
8.3995409 -33.039257 22.811356 -0.35922188 0.93320245 0.0096378205
8.5330553 -33.22879 19.553591 0.0058407742 0.99979651 0.019306729
48.091091 -42.844009 34.177601 0.4801282 0.047462363 0.87591344
47.909904 -41.303997 34.762119 0.32607239 0.31212518 0.89233106
45.772209 -43.026726 35.828716 0.11660846 0.77330643 0.62321717
24.96953 -33.723454 31.22723 -0.037815861 0.98800308 0.14973304
26.762814 -33.375755 31.439039 -0.013454201 0.9898293 0.14162272
26.383919 -33.762203 34.303726 -0.080280766 0.81900114 0.56814796
32.091343 -99.686089 46.706871 0.17118493 0.21978812 0.96041077
34.474815 -33.586452 33.16003 0.053838789 0.9892149 0.13621785
8.6818857 -73.765755 42.378674 -0.39441466 0.16708535 0.9036147
-19.759445 -43.966934 9.0019455 -0.85721201 0.30900267 0.41195253
2.7547748 -37.588184 28.759476 -0.46176153 0.50497687 0.72922885
-1.6610198 -68.109795 36.466331 -0.48174495 0.1758889 0.85847825
-20.792599 -76.376595 24.13213 -0.7707355 0.12404339 0.62496412
-41.445141 -93.503143 51.579189 0.38120291 0.33676907 0.86097097
-38.845821 -91.771301 49.381836 0.42625615 0.59531689 0.68110454
-13.214093 -104.77113 -61.008675 0.44881091 -0.62999094 0.63378245
16.109581 -104.92845 -73.135483 0.1126987 -0.41889814 0.90101236
-4.8951206 -102.95353 -64.627083 0.55107898 -0.61231846 0.56690216
-7.3301463 -102.84899 -63.139885 0.14101374 -0.70476824 0.6952818
14.975763 -102.60628 -72.840912 0.27103212 -0.052485865 0.96113831
10.965998 -102.72242 -71.604584 0.23934354 0.19028236 0.95210677
-5.9048977 -102.28104 -61.664268 0.011296184 -0.34243032 0.9394753
-4.8477221 -101.93393 -63.111134 0.89610034 -0.0088728508 0.44376275
-21.090839 -103.48692 -51.990692 0.65130448 -0.51189947 0.56014413
-1.100803 -105.70359 -69.583511 0.24122503 -0.68255979 0.68987149
-5.1260662 -99.296387 -64.981056 0.59905779 0.27130842 0.75334024
-7.8153095 -100.11345 -63.353279 -0.46131644 0.11821242 0.87932527
-5.8664756 -100.47567 -62.790226 0.42734277 0.48300338 0.76425511
-13.988419 -102.21786 -58.507801 0.64884788 -0.22852956 0.72578973
15.024244 -98.281296 -73.015411 0.31604895 0.039641444 0.94791436
-1.673978 -99.123344 -66.800011 0.52729273 0.19934425 0.82596862
-7.6902876 -98.431862 -63.152206 0.47916403 0.30188075 0.82417834
-17.212349 -102.04391 -54.849239 0.66872007 -0.50301236 0.54753274
16.657417 -100.40305 -73.34227 0.18458891 -0.03801287 0.9820804
-6.0523562 -96.997154 -64.599419 0.54390723 0.053928666 0.83741069
-32.247803 -103.93185 -39.203072 0.20208426 -0.97206908 0.1193464
12.601207 -97.08725 -71.291008 0.32058713 -0.12767518 0.93857491
-0.74069977 -95.611366 -67.71978 0.55935782 0.061387066 0.82665014
-1.1615918 -97.352867 -67.98101 0.65647912 0.023013234 0.75399303
-3.3280742 -97.716324 -66.083626 0.53471482 0.049905222 0.84355772
-9.7183399 -97.400497 -62.246811 0.53862256 0.01775446 0.84236002
-30.396784 -103.40797 -38.302582 0.56845921 -0.76992494 0.28994772
12.526018 -95.044487 -72.845703 0.47507021 0.11668028 0.87217772
-3.6325123 -95.53978 -66.033127 0.52468902 0.099141002 0.84550136
-9.3695469 -95.237778 -62.145775 0.5988059 0.069655471 0.79785937
13.61421 -96.169594 -72.576241 0.36389291 0.18195415 0.91349584
-2.1200526 -94.00666 -67.63073 0.60743433 0.20146751 0.76839733
-6.1367764 -93.892174 -64.781654 0.55172503 0.04543978 0.83278733
-18.934464 -102.02444 -53.202976 0.61365449 -0.47942486 0.62735963
16.122551 -93.889 -73.555725 0.12716453 0.010554739 0.99182546
18.958214 -92.880463 -73.407532 -0.0093810149 -0.11950318 0.99278951
-4.0711422 -92.121918 -66.0019 0.5484547 0.0081376228 0.83614063
-6.5919318 -92.097458 -64.478706 0.56531173 -0.063010745 0.82246721
11.920747 -90.941452 -72.476303 0.25586942 -0.079510048 0.96343595
-31.859682 -103.17014 -35.085373 0.52488762 -0.8008849 0.28822976
-9.813653 -90.367218 -61.745686 0.56189317 -0.10146074 0.82096398
-12.135616 -90.652504 -60.223438 0.6864816 -0.03903294 0.72609878
16.187801 -90.553535 -73.3545 0.17132908 -0.065229028 0.98305219
-6.9675603 -88.406693 -63.602627 0.58685952 0.00060196809 0.80968863
-5.6483593 -86.667793 -65.068504 0.63102245 0.16100405 0.75887316
17.273584 -87.436478 -73.449036 0.21087453 -0.0065632067 0.97749108
-10.397564 -87.119919 -61.489162 0.61951244 -0.039376352 0.78399861
-11.162668 -85.198311 -60.168617 0.70800132 -0.093518071 0.69999176
15.477838 -85.572128 -73.148659 0.18869586 0.030409114 0.98156458
12.98128 -84.443726 -72.674522 0.22552921 -0.018493868 0.97406089
-7.2701936 -85.316391 -63.7435 0.60941976 0.011273155 0.79276764
-8.9156551 -83.4189 -62.104916 0.66048074 -0.089628316 0.74547428
17.064495 -83.099815 -73.409096 0.17404239 -0.066636853 0.98248088
45.915108 -60.261307 40.796108 0.29397324 0.15224421 0.94361085
-10.173351 -81.126694 -61.136589 0.64021534 0.026956763 0.76772231
-20.390388 -105.23083 -58.007965 0.19947696 -0.94557106 0.25710756
15.310173 -81.161919 -72.714401 0.13999389 -0.18112339 0.97344542
-94.633453 -112.85645 67.388878 -0.079363018 -0.93368882 -0.34917995
13.217866 -79.338318 -72.156021 0.13447043 -0.14582737 0.98012859
-78.222458 -111.25222 62.130363 0.096177593 -0.97551572 -0.19778539
-87.347641 -113.42751 71.895218 0.19755612 -0.98028386 -0.0038851425
-74.277344 -110.45097 66.967377 0.2911368 -0.93282777 0.21230097
-39.943176 -103.45551 41.657963 0.3148745 -0.94207293 0.1155535
-22.603315 -105.10406 -56.158264 0.19494823 -0.96590334 0.17037007
-16.19829 -88.232948 -56.369194 0.66213214 -0.02452448 0.74898577
