# .PCD v0.7 - Point Cloud Data file format
VERSION 0.7
FIELDS x y z nx ny nz
SIZE 4 4 4 4 4 4
TYPE F F F F F F
COUNT 1 1 1 1 1 1
WIDTH 736
HEIGHT 1
VIEWPOINT 0 0 0 1 0 0 0
POINTS 736
DATA ascii
30.124249 -31.963514 15.896497 -0.40794942 0.41933662 0.8110081
20.977646 -35.356888 14.725834 -0.082975991 0.47887009 0.87395561
29.381323 -34.691566 16.77227 -0.27883866 0.44310611 0.85200119
31.43548 -33.488678 17.126905 -0.21046491 0.38333017 0.89931226
33.325771 -36.347786 18.560287 -0.22160383 0.47587413 0.85113776
-28.425728 -28.853582 14.095541 0.25691366 0.40935421 0.87545669
-36.664696 -26.238132 12.846493 0.033397134 0.60355401 0.79662246
16.254105 -35.131729 14.523421 -0.12424839 0.45831019 0.88006485
61.583359 -63.957005 45.499157 0.32039222 0.60286021 0.73069036
31.278439 -36.00507 17.757597 -0.18863706 0.42384729 0.88587219
-25.870173 -29.613487 13.365487 0.16620801 0.37482333 0.91207582
-28.600822 -35.762768 17.246264 0.21087417 0.47001082 0.85710084
-27.40156 -37.950054 18.393654 0.20336339 0.49938771 0.84217292
8.2495108 -36.506493 14.332754 -0.058565967 0.44602147 0.89310414
19.107885 -35.53043 15.192322 -0.066148363 0.46667939 0.88194937
29.528492 -36.805023 18.233744 -0.18289435 0.50312638 0.84463805
-23.991758 -30.422047 13.899797 0.098445281 0.47082427 0.87671715
-30.087677 -37.402061 18.562042 0.22148603 0.49552828 0.83987838
58.056374 -47.459255 25.538946 0.70009279 0.42590547 0.57312709
2.1465163 -37.464371 14.626688 -0.014420997 0.48782414 0.87282282
2.7344613 -38.495979 15.414751 -0.0071587213 0.47430381 0.88033205
21.157578 -37.042294 16.149948 -0.11052268 0.47174349 0.87478155
24.546595 -36.749207 16.390131 -0.2667208 0.49150449 0.82902551
25.905577 -35.152004 16.034418 -0.22781387 0.44178143 0.8677153
27.595148 -36.866634 17.332783 -0.31454578 0.47883263 0.81962198
-26.27949 -31.335407 14.210183 0.078008711 0.52835035 0.84543502
58.744938 -50.847832 29.3251 0.91532159 0.39758274 0.064143889
4.9448376 -38.420715 15.198249 0.0080831926 0.46036962 0.88769054
5.8843637 -41.205994 16.704411 -0.031902444 0.47669861 0.87848765
12.023396 -38.761799 15.920308 -0.057541501 0.46435398 0.88377845
-31.077545 -30.201006 15.296096 0.24619742 0.40895814 0.87871504
-43.355209 -36.329529 22.163893 0.12774502 0.64148772 0.75642234
-37.03978 -35.085194 19.334833 0.26144925 0.49983609 0.82571679
20.141861 -38.856174 16.850376 -0.12555365 0.48348719 0.86630046
-28.260633 -30.519915 14.354851 0.25998715 0.42358676 0.86774474
-50.041103 -37.73827 23.03966 -0.090111665 0.90573126 0.41416278
-48.067368 -37.655357 23.287775 0.067418262 0.68358195 0.72675329
-45.554695 -37.096535 22.433905 0.0081164511 0.64939004 0.76041216
-34.012943 -37.101379 19.57086 0.25921839 0.49213284 0.83103007
-24.063126 -39.400776 18.297091 0.20825945 0.42083037 0.88290989
-22.047907 -39.240047 17.924545 0.11475732 0.43011743 0.8954494
-13.013736 -39.144657 17.238132 0.086617395 0.48354167 0.8710252
16.990648 -39.974865 17.059504 -0.14022358 0.43978515 0.88708866
22.469591 -38.365711 16.834276 -0.18001746 0.50267696 0.8455233
-46.721264 -38.566837 24.119991 -0.021328956 0.74434233 0.66745758
-44.529282 -37.287903 23.304604 0.16857104 0.56611085 0.80690908
-30.289373 -38.164318 19.32963 0.20486653 0.49770036 0.84280723
-22.562471 -40.366955 18.168089 0.089496195 0.51421231 0.85298073
12.492359 -41.356071 17.190493 -0.060500678 0.4802421 0.87504697
14.482327 -40.776894 17.099924 -0.048884984 0.45354262 0.88989282
-49.963036 -38.126335 23.905304 -0.0052034305 0.69243878 0.7214579
-34.492413 -39.234985 20.923565 0.25842735 0.48806325 0.83367234
19.299156 -41.069878 18.017836 -0.20262346 0.4831239 0.85178345
29.223751 -39.558029 19.53178 -0.18632567 0.48390281 0.85505599
-44.559261 -38.102707 23.659456 0.22904687 0.57903796 0.78246576
-24.912256 -40.794136 19.024157 0.27952585 0.36068657 0.88981485
0.96813679 -42.199097 17.24242 0.0031051789 0.47438332 0.88031298
9.8236876 -41.034771 16.961643 -0.064252645 0.48011827 0.87484741
21.628653 -41.157963 18.488211 -0.16998518 0.49876052 0.84990764
23.802084 -39.275082 17.982935 -0.37622416 0.49116492 0.78562868
-35.319019 -53.636826 30.883839 0.29435977 0.59968221 0.7441327
-48.691376 -40.249443 25.710308 0.00073072052 0.67054528 0.7418682
-36.321247 -40.336651 22.194351 0.27299058 0.50724864 0.81741965
-31.421946 -39.563183 20.234343 0.22351548 0.47911882 0.84881443
24.513582 -41.409428 19.403643 -0.21095835 0.48191756 0.85044223
-47.320549 -33.624538 18.883476 -0.32728919 0.77374458 0.5424031
-52.700195 -40.046818 25.46166 -0.12306083 0.79782325 0.5901984
-39.192585 -39.355217 22.522682 0.25675133 0.51893389 0.81534433
-23.295979 -42.274345 19.751408 -0.0017535419 0.62842417 0.77786899
15.134134 -42.952778 18.211115 -0.11181458 0.55848634 0.8219431
58.349365 -50.871071 31.187441 0.90687317 0.36800894 -0.20530595
-51.25301 -39.827251 25.466602 0.0035772284 0.73448324 0.67861742
-25.215345 -42.232624 19.710716 0.070533559 0.5770455 0.81366062
3.7111754 -43.366077 17.893007 -0.0090539781 0.50437266 0.86343867
11.54005 -43.017246 18.156462 -0.05872564 0.4317916 0.90005964
56.541149 -46.072208 29.049368 0.90028024 -0.052003045 -0.43219337
-51.591053 -49.722553 34.558643 0.098000847 0.69762671 0.70972723
-20.126577 -42.249977 20.166885 0.3127093 0.57652593 0.75487137
8.0965071 -43.165787 18.032679 -0.03805317 0.47151628 0.88103598
11.840794 -44.354141 18.527721 -0.06828884 0.46037105 0.88509607
20.759451 -43.494755 19.569759 -0.11023752 0.53723806 0.83619553
40.657211 -64.705887 41.942806 -0.24375908 0.66883671 0.70230967
41.983967 -65.018295 43.128471 -0.32625422 0.63808417 0.69742876
-31.339544 -54.505836 30.447994 0.20532575 0.60498106 0.76931083
-21.819885 -42.992439 20.570951 -0.0025788203 0.55252934 0.83348948
43.249332 -66.164459 44.544266 -0.31799117 0.61721057 0.71967542
46.476795 -63.405277 43.88588 -0.33990559 0.66186601 0.66812998
62.188503 -58.677361 33.605064 0.24312775 0.69722182 0.67436683
-53.090332 -40.717922 26.289673 -0.19932388 0.66447282 0.72024018
-50.813808 -41.515541 27.080423 0.069140971 0.65507501 0.75239366
-47.30312 -41.717476 27.04656 0.14746028 0.60317463 0.78385955
13.479043 -43.262222 18.516209 -0.10658928 0.49874261 0.86017126
-54.033882 -42.053654 26.090364 -0.48029593 0.6994167 0.52927512
-52.44017 -42.39016 27.981274 -0.14736728 0.72170657 0.67633015
-50.040863 -42.342289 27.40093 0.046307981 0.69605851 0.71649009
-5.4946728 -44.865875 19.114767 0.05611749 0.54247957 0.83819258
-1.9645219 -44.801708 18.610693 0.038101412 0.52913094 0.84768432
4.643477 -46.140434 19.565714 -0.014410536 0.50479442 0.8631193
8.1776991 -46.421074 19.923271 0.02010878 0.4844704 0.87457651
17.858934 -45.993847 20.913012 -0.16997142 0.56275892 0.80895746
18.48562 -44.011204 20.00528 -0.17863885 0.57332456 0.79961681
-34.111092 -45.307652 24.638519 0.27912596 0.54102039 0.79333824
14.873706 -45.632656 20.074293 -0.13891207 0.59313655 0.79302746
-28.780115 -75.874718 50.269001 0.16988289 0.82244825 0.54287988
-54.084877 -43.02536 28.436354 -0.14378788 0.69310552 0.70634967
-51.122753 -43.122143 28.684803 0.038814556 0.65482754 0.75478101
-49.382393 -44.02132 29.396818 0.16948694 0.61231506 0.77223337
-12.655554 -47.200958 21.309551 0.12893791 0.54555446 0.82809746
1.5157695 -45.250278 19.037123 0.010828286 0.50754428 0.8615576
2.0432174 -48.486542 20.91383 0.014409641 0.52584445 0.85045868
7.0704246 -44.424549 18.618887 -0.049398154 0.50673383 0.86068612
-54.942467 -44.391262 29.052561 -0.43555614 0.57823271 0.68988246
-25.4874 -45.99165 23.201515 0.11077567 0.60332924 0.78976107
-52.658718 -45.096737 30.259069 -0.028415225 0.64766449 0.76139569
-50.703335 -44.926472 29.744972 0.0037133396 0.61862826 0.78567499
-23.582958 -46.83139 23.125481 0.2442802 0.51790035 0.819821
6.5930686 -47.298317 20.347914 -0.030729245 0.52824992 0.84853268
8.2804413 -48.530579 20.963236 -0.01859436 0.55667377 0.83052313
11.175909 -46.495087 19.733107 -0.071738094 0.54450834 0.83568192
11.183208 -48.762062 21.572491 -0.16286324 0.61652243 0.77030885
12.924486 -46.661758 20.38192 -0.22619528 0.56274384 0.79508179
24.464811 -45.535042 22.005913 -0.16939504 0.46486369 0.86902648
-51.212151 -39.328178 17.068819 -0.45194283 0.65466017 0.60594362
-55.817032 -45.616516 27.988632 -0.87944782 0.32920614 0.34379488
-54.916824 -45.828232 30.494148 -0.38731211 0.63801718 0.66552484
-16.100956 -49.367977 23.181339 0.12545691 0.54541636 0.82872283
-13.21864 -48.059368 22.0863 0.12096222 0.55045742 0.82605374
15.98251 -46.91404 21.490664 -0.14009672 0.51558983 0.84530461
-23.780209 -49.840324 25.04319 0.2214943 0.53147018 0.81760609
4.8415613 -48.119259 20.660923 -0.062108491 0.5350222 0.84255189
7.2853775 -49.958672 21.846605 -0.095235884 0.58195233 0.8076272
6.1929307 -48.637386 21.423067 -0.0088408086 0.51023799 0.8599878
15.277462 -49.013065 22.161221 -0.099343516 0.5283832 0.84317374
-24.509502 -76.249107 49.208477 0.2171839 0.75040281 0.62428105
4.5540237 -49.925549 21.850197 -0.012979643 0.5266186 0.85000259
12.799565 -51.079334 23.630339 -0.08593107 0.57144612 0.81612819
-28.081739 -49.028481 25.744127 0.23192187 0.56813645 0.7895779
-25.489031 -48.752766 25.041811 0.19382896 0.52283847 0.83010256
13.495304 -48.48645 22.072947 -0.14443019 0.55695057 0.81789118
-49.653652 -47.064053 31.781658 0.21020432 0.60992926 0.76406842
9.7361708 -49.721169 22.242102 -0.092140228 0.62346482 0.77640313
34.852917 -64.600304 39.657425 -0.28014126 0.67237443 0.68515211
-29.53443 -50.74213 27.299192 0.26938567 0.46631202 0.84260571
-4.0959435 -52.032829 23.44112 0.072367392 0.55474728 0.82886571
-0.1139718 -51.125729 22.732656 0.028986964 0.53304291 0.84559155
9.4631014 -51.861847 24.060205 -0.097754955 0.58498746 0.80512959
-37.155701 -51.058388 29.505627 0.2628338 0.58243322 0.76921391
-36.814568 -49.13802 28.000399 0.26575586 0.51827157 0.81287658
-20.104113 -51.501617 25.253265 0.15976764 0.550708 0.81926489
-11.180295 -51.879272 24.091387 0.12096769 0.5611077 0.81885588
12.361408 -52.986023 24.785049 -0.073827952 0.57063496 0.81787843
-35.550594 -51.672699 29.580017 0.24705562 0.62141895 0.74350655
-36.377293 -50.674255 28.50215 0.21363471 0.59120572 0.77771205
-13.05588 -53.486897 25.667704 0.08748769 0.59022886 0.802481
-1.4110316 -53.047878 23.940296 0.036116734 0.57453144 0.81768525
2.4967415 -52.139248 23.149611 0.0087731304 0.565579 0.82464749
5.2519317 -52.184753 23.404335 -0.078754656 0.59660161 0.79866403
7.517302 -52.424137 23.967506 -0.12170427 0.61106873 0.78216565
-16.097601 -53.098232 25.614431 0.12272161 0.55886221 0.82012939
-39.917992 -52.630383 31.388247 0.25693774 0.62989163 0.73295254
2.0439363 -54.9711 25.255642 -0.037449583 0.61905807 0.78445172
4.1599836 -54.369213 24.897997 -0.089114085 0.66712433 0.73959708
10.574021 -54.385593 25.562416 -0.048934601 0.57334435 0.81785184
-27.844173 -53.315285 28.471283 0.20763655 0.5646776 0.79876554
-20.594549 -53.275932 26.558916 0.17901552 0.56746244 0.80370373
5.8834453 -54.952442 25.701435 -0.10267655 0.63364434 0.76678056
-46.6903 -52.830196 34.440018 0.35216826 0.63430166 0.6882143
-25.70565 -55.021496 29.147408 0.20149498 0.56389892 0.80088562
-0.60137212 -55.1427 25.613331 0.04066373 0.57419187 0.81771034
-13.738569 -55.276447 26.96237 0.074938379 0.60614944 0.79181254
7.7467093 -54.858139 26.060265 -0.041252442 0.59609157 0.80185604
-44.502575 -53.505394 34.534332 0.29898679 0.70535469 0.64271426
-44.847397 -53.271225 33.687706 0.27711388 0.63670796 0.71959078
-25.384542 -57.451164 30.696545 0.20786813 0.60957783 0.76498735
-0.00034801304 -56.431332 26.187523 -0.062096551 0.64459014 0.76200235
38.05365 -64.844139 41.540771 -0.3443884 0.68806833 0.63871634
-41.355064 -86.401207 68.028572 0.31770208 0.59299731 0.73987806
-35.082008 -55.919403 32.909893 0.27545458 0.60266805 0.74894321
-53.968266 -51.316196 36.108013 0.07884334 0.66875005 0.73929507
-28.775522 -55.262711 30.053236 0.2483511 0.58807462 0.76973367
3.8161297 -56.372166 27.008425 -0.073664621 0.65175319 0.75484526
6.3305554 -57.560631 27.750645 -0.014558407 0.59244394 0.80548006
-38.791557 -86.179703 67.336876 -0.0052680816 0.48675591 0.8735221
-32.251076 -55.73035 31.349089 0.24800424 0.6166575 0.74714625
-16.600124 -57.954521 29.43194 0.11379422 0.6292854 0.76879829
-13.344688 -58.174538 29.051386 0.11497436 0.60365558 0.78891122
-2.0361009 -57.07333 26.81599 0.056896951 0.59179354 0.80407912
-0.86632955 -58.184212 28.028614 -0.032819107 0.69878221 0.71458125
1.3990443 -58.331615 28.152725 -0.069075152 0.64618862 0.76004535
-33.286659 -54.163708 30.838602 0.25863793 0.55475903 0.79079002
-39.311016 -87.183891 67.778168 0.089387923 0.74702728 0.65875643
60.561234 -53.012512 34.597492 0.95296776 0.26900646 -0.13959967
-42.995426 -55.48391 35.343197 0.31293017 0.60241956 0.7342788
-2.4687209 -58.450974 27.817753 0.011106541 0.65899086 0.75206894
46.188305 -65.918823 45.847679 -0.35450745 0.63564152 0.68577278
-44.040653 -56.443314 36.875546 0.31721422 0.59659201 0.73719281
-36.031178 -58.560757 34.95985 0.3017084 0.60015035 0.74080479
-33.368065 -57.378593 33.378521 0.24967787 0.62548804 0.73920608
-23.107321 -56.674156 29.696991 0.17707759 0.59118062 0.78686023
-21.41732 -58.0378 30.359695 0.13453251 0.61723047 0.77519518
-18.871222 -58.271305 30.227354 0.15915412 0.6125676 0.77422923
-39.418797 -88.309662 69.724045 0.10250228 0.7820946 0.61467171
-37.684254 -88.319382 69.188171 -0.073341541 0.62136465 0.78008145
-22.725197 -59.344967 31.697945 0.16889229 0.64710486 0.74345857
-18.737587 -59.593288 31.048506 0.14813405 0.63031179 0.76207834
-0.86403656 -59.487713 29.352739 -0.0083818268 0.68024296 0.73293877
-4.6562409 -60.307686 29.741276 -0.046158466 0.70053107 0.71212757
-3.7417128 -58.930702 28.451437 0.015156853 0.65013981 0.75966346
-2.5855038 -60.14333 29.910177 -0.013820343 0.6756435 0.73709893
-52.824726 -55.984772 40.230152 0.099343792 0.65965694 0.74497217
-47.296642 -56.628269 38.354275 0.37883592 0.60223228 0.70270878
-38.968311 -59.183254 36.72298 0.2858572 0.68416858 0.67096871
-24.936533 -60.477798 33.433582 0.19160816 0.63998109 0.74411732
-16.925516 -60.510204 31.610708 0.14133376 0.63547325 0.75907743
-4.7427044 -61.802193 31.446043 -0.0023461077 0.64252383 0.76626211
1.6635178 -60.135193 29.745275 0.0031945773 0.63476056 0.77270228
32.046368 -65.723618 39.323269 -0.25530788 0.67516923 0.69207251
-43.824348 -60.081577 40.135403 0.2461369 0.73535109 0.6314075
-37.978062 -57.757946 35.266483 0.26852459 0.60999531 0.74552006
-0.81378055 -62.014435 31.221018 0.0263799 0.6173197 0.78627002
37.107494 -65.972481 42.676529 -0.27615282 0.70442688 0.65385199
59.57159 -51.419044 32.534931 0.89769202 0.28642514 -0.33482787
59.890713 -52.640682 33.205055 0.96162087 0.091896176 -0.2585353
-53.05888 -57.672211 41.81934 0.18313901 0.66277999 0.72607356
-40.28326 -59.522621 38.047974 0.3232787 0.71403515 0.62100303
-42.142208 -60.160168 39.418831 0.24718183 0.79631478 0.55207241
-37.260021 -60.682301 37.734219 0.34551281 0.6774258 0.64939594
-32.093311 -60.954208 35.878746 0.23561205 0.63103396 0.73910969
60.912617 -54.246727 36.078815 0.9005037 0.41442907 0.1316881
-35.423458 -61.320469 37.146935 0.29195872 0.66805792 0.68444043
-31.062635 -62.470169 36.86478 0.24153185 0.6513285 0.71932852
-21.613842 -60.775402 32.908073 0.15478823 0.6576553 0.7372449
-15.597296 -61.380589 32.011955 0.17672443 0.60982484 0.77258146
60.926857 -55.574837 35.093872 0.90550667 0.21632256 -0.36505085
-41.641033 -60.076088 41.012287 0.021336004 0.99800795 -0.059371144
-35.575066 -62.014542 38.240623 0.41517758 0.74098653 0.52779406
-17.757963 -62.775398 33.73307 0.17397985 0.6232686 0.76240879
-8.1249104 -97.488411 79.412636 -0.16574605 0.29577518 0.94076848
60.717709 -57.137604 33.158314 0.79561955 0.57319903 0.19604187
-57.436012 -48.571526 19.007643 -0.61986023 0.74399543 0.24948759
59.811104 -55.634327 31.954794 0.81877041 0.49515721 0.29057562
-52.564411 -59.855679 43.853718 0.18795125 0.67038459 0.71781534
-20.195717 -63.125568 34.52298 0.17891139 0.63626206 0.75044078
-18.80356 -64.572083 35.342094 0.15992163 0.66902584 0.72583026
-54.876392 -63.232113 45.844398 -0.36737046 0.57568163 0.73049957
-48.674236 -61.917786 43.933556 0.33697721 0.65121526 0.67997432
-43.902905 -61.16592 41.024048 -0.0044429363 0.61809969 0.78608721
-28.041418 -63.1786 36.474659 0.2219025 0.65109658 0.72583228
57.668728 -48.069408 31.153522 0.87642241 0.46005425 -0.14224568
59.241081 -48.820034 24.560045 0.71126628 0.60623842 0.3557741
-51.352886 -62.115021 45.374466 0.25628844 0.65013343 0.7152921
-13.06197 -36.632484 15.165039 0.16653241 0.52725559 0.83322775
-47.232433 -62.629211 44.120628 0.37454972 0.56545609 0.73482788
-45.809681 -61.753891 42.180309 0.38709378 0.71584082 0.5811457
-28.972271 -64.689911 38.301506 0.22623459 0.66500282 0.71175069
-44.581192 -64.709938 43.790737 -0.0066534383 0.40592733 0.91388118
-44.76997 -62.739471 42.873615 0.029060157 0.6532039 0.7566241
-32.794243 -65.675758 40.294125 0.31372347 0.67505133 0.66774493
-17.817736 -65.70665 36.463348 0.16998641 0.66774577 0.72472072
-20.737185 -65.359718 36.654896 0.17485514 0.66135842 0.72940439
-53.462662 -64.24453 47.946716 0.046914075 0.6460771 0.76182902
-49.368393 -63.309521 45.704922 0.34501126 0.59841609 0.72309434
-46.800224 -64.654533 45.131077 0.39434978 0.66449016 0.63477647
-45.80566 -64.890678 44.109085 0.41724202 0.61923069 0.66517854
-27.02949 -65.370514 38.156662 0.23532973 0.65675277 0.71644658
60.769592 -59.633312 35.22377 0.35288459 0.62721068 0.69431925
38.380005 -66.204262 43.239101 -0.21856305 0.64450347 0.73269743
55.889126 -47.21991 26.651684 0.81435049 0.50098073 0.29300433
57.862236 -49.141228 26.623856 0.55486828 0.63497823 0.53751636
56.688953 -48.651146 26.875851 0.61443985 0.62061763 0.48713183
56.763241 -49.19326 28.073338 0.70738989 0.70640868 0.0242157
-21.592733 -67.69252 38.926479 0.17072031 0.67227966 0.72034341
-19.701113 -67.520454 38.345417 0.17038655 0.64727175 0.74297231
56.427479 -63.05587 47.491516 -0.03804981 0.63027817 0.7754364
-50.032898 -64.776566 47.02177 0.29169196 0.70708776 0.64416045
50.316055 -65.973938 48.040783 -0.36391091 0.68420887 0.63200241
-24.292477 -67.0261 38.814091 0.18807989 0.66891009 0.71915597
-58.610878 -50.63018 21.929504 -0.70932168 0.65644395 0.25679579
6.1678252 -46.566311 17.981651 0.0045976466 -0.53937197 -0.84205502
4.8982654 -49.363464 19.785162 0.061071612 -0.56825781 -0.82058114
4.7287164 -50.594135 20.843843 -0.059738982 -0.55556661 -0.82932323
-57.276386 -49.654678 22.063334 -0.73603797 0.64090014 0.21793355
-56.620171 -49.226933 23.652987 -0.87400693 0.41828772 0.24727981
52.00502 -70.129425 53.739269 -0.20824464 0.67853659 0.70443046
9.3748236 -48.085529 19.284187 0.20939864 -0.56042922 -0.80129355
7.8514557 -50.626266 20.864847 0.17837539 -0.61425871 -0.76867968
7.286922 -48.93943 19.163706 0.035665877 -0.57641309 -0.81637973
0.95300281 -48.940884 18.89403 -0.038773801 -0.56077534 -0.82705957
-0.86417735 -50.468872 20.227493 -0.0083633037 -0.59088093 -0.80671543
2.9020638 -53.548359 22.631754 0.11131296 -0.62789053 -0.77030051
1.807973 -51.221088 20.452349 0.10713809 -0.59023702 -0.80008852
-1.5123289 -53.53907 22.437759 -0.063873723 -0.67749888 -0.73274511
-2.0140731 -52.320644 21.400305 -0.046892527 -0.57832497 -0.81445765
0.47503293 -53.073208 21.833782 -0.010766808 -0.6170187 -0.78687483
-0.58472639 -54.832634 23.598303 -0.057864409 -0.68935055 -0.72211319
2.6521337 -46.509563 17.476065 0.10270502 -0.55781752 -0.82358444
1.5302902 -47.490475 18.009068 0.11018253 -0.5362969 -0.83680671
3.9642625 -52.023865 21.469322 0.14772902 -0.56285334 -0.81324798
-51.832767 -40.961964 14.017369 -0.87963128 0.47137725 -0.063656218
-51.668949 -39.988373 15.366056 -0.84064418 0.51758653 -0.15944101
-52.366604 -40.662018 16.57312 -0.84622115 0.52823424 0.069844924
-16.015167 -78.624008 49.320892 0.12993151 0.81029665 0.57143426
-47.583981 -35.617275 13.397912 -0.65141869 0.67839855 -0.33974862
-54.074791 -43.082573 19.127512 -0.89712363 0.34780985 -0.27239215
-54.593399 -45.101288 18.499201 -0.88154006 0.45750591 -0.11651353
-55.680706 -45.428219 21.880293 -0.92452079 0.21729465 -0.31312039
-55.340347 -46.316429 19.690746 -0.8908965 0.44829345 -0.073050879
-56.317387 -48.169804 21.188108 -0.86776584 0.49691185 -0.0078109507
-56.011036 -47.065166 22.308743 -0.97448456 0.19674739 -0.10802836
-56.809666 -48.404125 23.056381 -0.94848961 0.31642392 0.015601562
-49.480495 -36.596714 15.078494 -0.83681959 0.45418084 -0.30570045
-49.085285 -37.230854 13.054506 -0.77751327 0.61910182 -0.11039049
-50.701851 -38.994576 14.327529 -0.78627717 0.6149413 -0.060127992
45.930206 -67.876198 47.711079 -0.3553324 0.69686115 0.62299556
50.336906 -67.689636 50.431595 -0.37592342 0.69362271 0.61446649
53.846607 -62.066315 46.33569 -0.32316732 0.6469925 0.69062549
-49.456421 -37.724102 15.393376 -0.75756186 0.65110922 0.046440605
-49.040367 -38.807526 16.036114 0.34923416 0.78372425 0.51362616
-50.427326 -38.266476 16.153591 -0.45791808 0.85115397 0.25660861
-54.878845 -43.136009 20.950451 -0.82693058 0.54368371 -0.14350544
-54.081707 -43.711475 23.111708 -0.33911178 0.83289272 0.43737045
-55.631725 -43.842693 22.159794 -0.81294584 0.5788517 -0.063637607
-56.39077 -45.025043 23.375515 -0.9609127 0.18668038 -0.20444377
-56.723679 -46.806931 24.274256 -0.94556224 -0.0058800243 -0.32538822
-55.949913 -47.477142 23.46479 -0.92338496 0.14792441 -0.35422957
-56.195816 -48.861732 24.541281 -0.96975142 0.23176566 0.076594919
-56.68055 -48.500755 25.989902 -0.93729198 0.29483378 0.18589474
-55.538536 -49.58263 28.998686 -0.6937021 0.58286667 0.42313579
-38.622898 -74.504967 51.887558 0.3124879 0.72128481 0.61814195
-13.724114 -79.323471 50.151764 0.091683537 0.80675691 0.58372712
-56.773094 -51.014496 29.300842 -0.72718823 0.58904129 0.35245934
-58.312378 -52.103146 27.488108 -0.84285969 0.51658976 0.15074018
-54.788479 -44.224628 20.572306 -0.91206408 0.24958655 -0.32533944
-36.646774 -73.591728 50.626656 0.27183655 0.69141728 0.66936326
-22.528097 -77.142548 49.591618 0.15112904 0.80131882 0.5788334
-19.263529 -77.098587 48.786709 0.20465891 0.77924824 0.59235704
65.084709 -64.467674 37.688828 0.19166853 0.71327078 0.67417192
-37.717972 -43.948795 24.807064 0.27104595 0.54529536 0.79321319
7.5122814 -33.712025 13.21273 -0.03687752 0.4339858 0.9001646
-50.047646 -58.135185 41.208187 0.33309415 0.5948081 0.73160893
18.903656 -54.753616 26.927143 -0.11097691 0.58623189 0.80250627
-52.177635 -65.417831 48.833981 0.11928568 0.72201508 0.68151677
20.894905 -68.32859 38.597012 -0.17367506 0.67151934 0.72034633
56.193378 -58.439301 43.216736 -0.14710261 0.6890325 0.70964426
59.34734 -52.182362 35.218567 0.6481753 0.5701701 0.50475234
60.866562 -61.567963 43.991856 0.50379241 0.63250387 0.58832991
-28.532627 -24.208393 10.067343 -0.24320014 0.85976368 0.44906586
-52.594402 -41.133877 17.889473 -0.8510797 0.49671862 -0.17009991
65.24649 -74.619148 48.256077 -0.20264179 0.68110752 0.70358282
-48.535915 -39.129074 16.911287 -0.052578036 0.69647032 0.71565682
-51.232533 -40.795258 17.828894 -0.27009267 0.65797061 0.70294005
22.354639 -66.69297 37.48761 -0.22591949 0.66481751 0.71202391
40.89539 -68.189362 45.544289 -0.30130363 0.66889274 0.67955768
44.365955 -67.338799 46.370209 -0.33306396 0.67278177 0.66063082
43.887138 -68.77478 47.513718 -0.3214128 0.72018784 0.61483598
39.877041 -70.36879 47.310482 -0.28651074 0.7374 0.61168039
-59.167034 -52.633251 22.967802 -0.90214455 0.42878142 0.047766663
-48.148819 -39.83025 18.053978 -0.28307331 0.77174747 0.56945175
-41.213608 -87.653351 69.557999 0.30673489 0.78689808 0.53544861
48.5989 -75.024818 58.204033 -0.26944116 0.73301327 0.6245743
56.055115 -86.15657 58.467266 -0.17387399 0.71526736 0.67687541
54.389683 -62.333897 46.905437 -0.044358782 0.66276443 0.747513
66.416237 -72.609253 47.056297 -0.32519516 0.64640683 0.69022197
-51.39695 -39.310654 24.740427 -0.037270591 0.7030158 0.71019703
44.580067 -69.709259 49.06826 -0.34620655 0.70995009 0.6132797
47.681915 -68.583672 49.687298 -0.35930625 0.70529205 0.61111552
63.822475 -74.62085 48.256596 -0.1971949 0.80122405 0.56493723
7.1765032 -36.796413 11.869701 0.084008336 -0.49909389 -0.86246616
48.508652 -70.032219 51.333702 -0.36191157 0.6569705 0.66136968
50.345032 -70.955437 53.453968 -0.3532823 0.70114648 0.61934257
-59.838852 -53.533504 24.799318 -0.7546671 0.61921471 0.21691151
-58.856693 -52.158463 24.567072 -0.80657518 0.54944485 0.21805243
-55.840988 -65.748856 47.632568 -0.40278453 0.58507222 0.70388573
-54.006603 -63.098324 46.997643 -0.25791776 0.65319324 0.71191084
44.431343 -71.088394 50.410297 -0.2497502 0.71902394 0.64855951
42.516247 -70.210587 48.983379 -0.31189868 0.7390753 0.59706509
42.654922 -71.891754 50.965672 -0.30339748 0.73968709 0.60067713
46.932083 -71.005478 52.014637 -0.35835224 0.65882951 0.66145855
-59.575378 -54.270294 27.010378 -0.62900794 0.68558252 0.36650461
-58.482647 -53.684822 27.697107 -0.78865492 0.49850234 0.35988727
37.897793 -83.480164 63.691742 -0.3785997 0.82726908 0.41507611
38.30851 -82.576401 62.265118 -0.35221899 0.81441349 0.4611643
38.488941 -72.85833 49.654613 -0.30210784 0.69481444 0.65265906
38.736774 -71.59462 48.395859 -0.31580186 0.71560329 0.62304175
63.14061 -72.649109 45.362217 -0.18510363 0.60579056 0.77379227
47.876736 -73.24485 55.0956 -0.31765786 0.79608989 0.51510608
49.127281 -72.591293 54.612972 -0.44834161 0.7357372 0.50762248
41.140232 -72.599884 50.609264 -0.36258611 0.70059663 0.61456943
45.918999 -72.210701 52.050358 -0.26415008 0.73337448 0.62640774
47.788475 -72.614891 53.802265 -0.3527877 0.70919377 0.6103974
50.440495 -72.075142 55.659821 -0.32371572 0.74337167 0.58532614
52.269562 -72.740181 56.539906 -0.075623214 0.68785304 0.72189981
-60.937645 -55.434299 26.403385 -0.41525686 0.80758297 0.41877386
-48.387676 -72.463211 54.041828 0.44113642 0.74026442 0.50735331
43.623413 -72.557266 52.432354 -0.27593943 0.75706923 0.59220237
63.738895 -69.71196 43.406479 -0.11802787 0.69102228 0.71313226
43.238567 -74.50354 54.58712 -0.28678039 0.7417503 0.60627013
33.47649 -66.262802 40.806309 -0.25924027 0.69764709 0.66789442
39.883415 -66.906334 43.995159 -0.25690329 0.6063984 0.75251687
45.850559 -73.266197 53.811626 -0.20100093 0.77123475 0.60398316
30.546803 -66.616913 39.914455 -0.25976163 0.73193818 0.62991303
35.830883 -66.206665 41.564938 -0.34840152 0.72096837 0.59901667
37.386505 -67.577126 43.572918 -0.17397074 0.57178897 0.80174279
29.102835 -68.176636 41.210464 -0.24174617 0.71678185 0.65405089
26.91617 -67.676109 39.507275 -0.19608214 0.71430469 0.67180401
35.751163 -67.877571 43.839214 -0.292263 0.67007577 0.6823349
32.800804 -69.63369 44.092918 -0.3102856 0.66086268 0.68336177
32.748074 -68.410957 42.506142 -0.28235069 0.68393868 0.67268568
20.540976 -69.413628 39.56834 -0.1223945 0.75467509 0.64458126
23.386927 -69.913994 41.138771 -0.19735542 0.75814313 0.62150621
25.587967 -68.962135 40.801189 -0.20342115 0.72110564 0.6622889
37.768372 -69.261497 45.22382 -0.23607688 0.67147768 0.70241404
51.221478 -74.454765 58.188881 0.0040065693 0.66851228 0.74369031
28.77145 -69.488884 42.394581 -0.18960421 0.66369838 0.72357076
18.602428 -68.881889 38.717903 -0.035867922 0.73226982 0.68006939
25.414198 -70.682663 42.681782 -0.16288833 0.7057876 0.68944275
29.920126 -70.752274 43.531738 -0.23281655 0.71448886 0.65977424
33.973793 -70.784775 45.666645 -0.24369052 0.70265806 0.66849577
36.397861 -70.601654 46.421604 -0.24787907 0.72204232 0.64591867
18.442276 -70.280571 40.630585 -0.09433759 0.75189906 0.65249383
32.22044 -72.132637 46.219265 -0.25656313 0.73955852 0.62227696
20.449162 -70.306252 40.671375 -0.13989832 0.74529749 0.65188962
28.500137 -71.037636 43.840927 -0.19760345 0.73382401 0.64996552
16.077873 -71.910614 41.66917 -0.19684497 0.69283676 0.69370687
21.804586 -71.320015 42.525639 -0.22346534 0.72348636 0.65316987
28.98237 -72.274696 45.603943 -0.19321784 0.80488205 0.56109864
35.480938 -72.739563 48.381035 -0.24528396 0.70791298 0.66234046
-27.572361 -76.516724 50.794445 0.23349997 0.74705613 0.62240255
-62.557133 -55.158916 27.288939 0.46625331 0.57209277 0.67477238
17.828438 -71.862343 42.280258 -0.14582485 0.70167798 0.6974116
20.291693 -72.06855 42.414104 -0.14453156 0.71206826 0.68707299
21.980278 -72.992821 43.983116 -0.15097991 0.74917853 0.6449315
25.645239 -72.35894 44.04604 -0.21160996 0.74109465 0.6371814
31.84568 -73.036171 47.477123 -0.19309863 0.72228581 0.66409045
36.312984 -74.840584 50.598106 -0.2611236 0.7499615 0.60775995
14.258505 -72.506561 41.561176 -0.19672322 0.6771481 0.70906299
19.779524 -74.503395 45.395935 -0.15061904 0.73696232 0.65893883
23.704607 -72.115852 43.781773 -0.17247929 0.69239676 0.70059806
24.263699 -74.43264 46.328876 -0.2026508 0.73511285 0.64694804
26.856516 -73.8974 47.140469 -0.24405086 0.72470379 0.64439392
18.435629 -73.216064 43.698215 -0.13521157 0.72664589 0.67357522
21.328812 -74.822128 45.840168 -0.1699338 0.73386264 0.65769911
25.364983 -76.489738 49.084377 -0.23942587 0.75496566 0.61049336
18.351328 -74.4366 44.815598 -0.22834934 0.68586111 0.69097835
33.029613 -74.615799 49.417721 -0.2251406 0.72176623 0.65449607
33.029663 -75.96196 51.406017 -0.24528578 0.73824996 0.62834865
34.4324 -75.085503 50.690434 -0.21682388 0.82796669 0.51716393
-26.478451 -77.279846 50.983814 0.23276062 0.73788851 0.63351643
13.17251 -73.798553 42.694202 -0.041795075 0.76958668 0.637173
28.543684 -75.529968 48.811993 -0.18868996 0.70916909 0.67931974
61.487915 -71.320808 44.682552 -0.30030891 0.61048335 0.73288786
15.637014 -74.609863 44.132629 -0.17943276 0.71869034 0.67177975
23.207726 -76.823235 48.236134 -0.21371363 0.74359065 0.63356096
30.375996 -76.34671 50.546017 -0.22142832 0.7838586 0.58011645
16.277145 -70.116295 39.889187 -0.17614964 0.68380094 0.70808733
8.98808 -74.924377 43.66785 -0.18468061 0.7346983 0.65277213
14.028716 -74.448395 43.737488 -0.051260311 0.79547191 0.60381848
16.161474 -75.423141 45.137402 -0.14002699 0.75782347 0.63725662
20.838583 -76.001701 47.016411 -0.18333811 0.75525421 0.62926799
26.828104 -76.779976 50.169518 -0.18578313 0.79835832 0.57280767
36.758404 -77.264755 53.8363 -0.28887355 0.72859883 0.62104416
34.114941 -77.925835 53.942059 -0.24511474 0.7396425 0.62677568
12.602905 -75.814949 45.036999 -0.09052252 0.77087623 0.63051999
14.671968 -75.452339 45.657227 -0.099587768 0.75741231 0.64529759
18.266075 -76.58387 47.389626 -0.14621736 0.7563163 0.63765669
22.378311 -75.554848 47.352688 -0.1369403 0.71499467 0.68558741
10.991336 -75.179237 44.566521 -0.079486921 0.74843752 0.65842474
29.666189 -78.188499 52.692562 -0.21145213 0.73180002 0.6478864
11.566622 -76.227539 45.97514 -0.03319585 0.79905629 0.60033906
33.531509 -79.307312 55.354553 -0.26251644 0.81383979 0.51841098
45.197891 -74.603745 54.762112 -0.27541396 0.79882747 0.53480995
49.428665 -74.352112 57.26099 -0.27572462 0.7493279 0.60206616
9.2253513 -77.026611 46.306339 -0.18593331 0.7283957 0.65944558
14.086927 -76.84716 46.569801 -0.073811404 0.77849549 0.62329489
20.631413 -77.512596 48.866108 -0.15208393 0.74638915 0.64789951
23.53141 -77.653145 50.105217 -0.24575995 0.78813571 0.56430858
27.805296 -77.874428 51.806595 -0.16946757 0.75375766 0.63492525
29.822922 -79.665703 54.595879 -0.19730577 0.82398432 0.53115004
32.07745 -78.750648 53.909645 -0.22451398 0.74032879 0.63364559
12.161476 -77.52858 47.647064 -0.10811041 0.73997492 0.66388941
16.99469 -77.687202 48.332047 -0.13137445 0.77131385 0.62274849
19.052429 -79.081253 49.953999 -0.166087 0.81922162 0.54889989
30.87484 -80.677872 56.679066 -0.23298387 0.79275012 0.56326342
-61.737736 -56.93121 28.964771 -0.37714997 0.86894912 0.32044542
-60.578316 -55.691681 28.578592 -0.53571796 0.78256762 0.31716576
-59.305477 -55.822048 29.546755 -0.29519832 0.76779556 0.56863689
15.220968 -77.738792 47.947552 -0.089921921 0.78364176 0.6146704
18.136477 -78.175102 49.047798 -0.065514028 0.73343003 0.67660058
35.526012 -79.72052 57.080978 -0.2265424 0.7691642 0.59754908
13.555169 -71.065781 40.20335 -0.098291889 0.65746361 0.74704772
20.358952 -79.513382 51.724285 -0.18804033 0.80885369 0.55713248
25.384686 -78.263596 51.621159 -0.2186437 0.7344532 0.64247447
28.501526 -79.403824 53.623463 -0.20792271 0.7706548 0.60237801
28.905087 -80.832542 55.783649 -0.2012084 0.76374394 0.61335993
39.889877 -74.338814 52.115688 -0.32819447 0.75123936 0.57264972
41.402023 -74.574738 53.008152 -0.37385961 0.74232483 0.55604219
14.904257 -80.416832 51.165733 -0.13282838 0.76327682 0.63226986
22.38661 -78.626785 51.046314 -0.17202047 0.79415071 0.58286679
23.498941 -79.779572 52.436115 -0.17267935 0.74388844 0.64560968
25.393175 -81.307266 55.56031 -0.22480381 0.79385811 0.56502438
38.418102 -80.777283 59.666813 -0.21451442 0.77601588 0.59311289
9.1221867 -23.872925 5.9151649 0.12553243 -0.40696463 -0.90477699
9.970665 -79.144867 48.512203 -0.15482917 0.69756895 0.69958955
13.41377 -79.105965 49.479748 -0.13568245 0.72767305 0.67237067
31.565758 -81.693871 57.943066 -0.26627588 0.72274286 0.63776171
34.163193 -81.34066 58.432423 -0.2770769 0.75896847 0.58923274
36.573475 -82.374115 60.727005 -0.22960338 0.77818811 0.5845558
9.6140041 -80.147224 49.59753 -0.056126945 0.80650061 0.58856314
12.931746 -80.606964 50.781704 -0.13592419 0.79233462 0.59475255
17.197245 -79.539787 50.879887 -0.12586352 0.78953779 0.60065675
33.268669 -82.020638 59.257298 -0.22125353 0.80564684 0.54952723
34.716175 -83.049591 61.311985 -0.24224341 0.79160106 0.56096858
-19.955421 -78.202057 50.68911 0.16359457 0.73454881 0.65853995
-56.873653 -49.95528 27.323175 -0.84343952 0.51190156 0.16299264
-57.318623 -50.713699 25.164255 -0.76116794 0.63234347 0.14410074
23.707449 -81.241531 54.437473 -0.17040731 0.81124055 0.55932999
25.346849 -82.824799 57.07481 -0.2066582 0.78365344 0.58581543
27.742605 -81.915062 57.155521 -0.16390568 0.7634986 0.62466377
12.270226 -81.147575 51.938255 -0.081192568 0.81412834 0.57498068
17.489756 -80.719917 52.045071 -0.18313871 0.75913757 0.62463617
17.13225 -82.128944 54.034386 -0.16038647 0.82652628 0.53956515
19.971512 -81.116478 53.483795 -0.14595851 0.7923795 0.59230971
22.686226 -82.278992 55.517948 -0.147902 0.79082674 0.59390074
32.000835 -82.893387 59.611294 -0.27661481 0.77707475 0.56536639
3.4029293 -79.911255 49.420574 0.013686021 0.71970195 0.69414818
6.8458729 -80.345993 50.288353 -0.062897325 0.77025068 0.63463199
7.8795772 -80.934212 51.309238 0.063402385 0.82869124 0.55610341
14.651705 -82.020561 53.080338 -0.13269182 0.79991925 0.58525383
29.623472 -82.63166 58.074619 -0.18151109 0.78506929 0.59221613
36.129322 -84.000282 63.115307 -0.2644619 0.81772089 0.51126552
4.8552055 -80.744911 50.256287 -0.030110249 0.8086347 0.58753991
19.437315 -82.5056 55.510914 -0.14757021 0.79295796 0.59113508
27.242853 -83.391014 58.701153 -0.1704289 0.80148745 0.57321191
2.3978868 -81.275757 51.340042 0.037618872 0.7874434 0.61523795
7.3581247 -82.43119 53.258236 -0.10891723 0.74996918 0.65244418
9.6477146 -81.515755 51.712059 -0.020703021 0.81905651 0.57333916
15.73913 -82.65316 54.92308 -0.15600491 0.82611352 0.54147851
29.268633 -83.936752 60.161835 -0.1929199 0.83617502 0.51341331
30.784 -83.950806 60.554764 -0.18683952 0.81087887 0.55458665
32.341736 -84.25399 61.655319 -0.26336026 0.80759645 0.52766407
34.444225 -84.378494 63.000313 -0.25749785 0.82021755 0.51082098
3.1795702 -81.935066 52.194511 -0.0120312 0.76723784 0.64124978
8.6458149 -83.199226 53.985561 -0.08043927 0.79340822 0.60335147
13.748974 -82.821053 53.72496 -0.095963769 0.81325209 0.57394421
21.101385 -83.874191 57.577129 -0.14098789 0.81872767 0.55660343
27.458414 -84.424133 60.028519 -0.16628949 0.85624987 0.4890644
28.534176 -84.913651 61.810543 -0.17152993 0.83300704 0.5260008
32.213646 -84.979248 62.962357 -0.25542963 0.86229104 0.43727547
-62.566704 -56.448959 28.38929 0.24217698 0.77329576 0.58597261
13.301383 -83.801605 55.435947 -0.20077121 0.82697594 0.52516824
-61.137863 -56.822659 30.665705 -0.25329253 0.83177012 0.49396491
-59.689392 -57.316479 30.64983 0.22051966 0.62269288 0.75074935
5.9147024 -82.622009 52.647873 -0.14360523 0.75190377 0.64344257
11.092903 -82.968544 54.133503 -0.062797554 0.79225063 0.60695571
12.230039 -83.601517 55.15649 -0.060797833 0.81925678 0.57019472
26.438396 -84.947784 61.073902 -0.20493089 0.79302484 0.57368535
1.9569113 -82.948906 53.013691 -0.053037915 0.77443326 0.63042849
4.2822609 -82.607033 52.644119 0.034562923 0.7529794 0.65713578
5.7812057 -83.719643 53.851028 -0.12692036 0.82897216 0.54469842
14.44004 -84.395721 56.77449 -0.16011871 0.81530547 0.55645216
17.49235 -83.626289 56.056232 -0.1235209 0.80933726 0.5742088
20.022211 -84.776421 58.72184 -0.16419786 0.80854988 0.56505412
23.737375 -84.138924 58.657894 -0.1615041 0.83346224 0.52844793
30.177887 -85.621521 62.959381 -0.1833559 0.84829581 0.49676448
6.9817948 -84.406387 55.119812 -0.02367809 0.77947062 0.62599111
12.773992 -84.985023 56.914562 -0.1378928 0.81425744 0.56388861
14.264459 -85.017555 58.034569 -0.14459364 0.83553618 0.53006786
25.490213 -86.513847 62.449409 -0.25119171 0.7877301 0.56248021
31.686256 -85.938583 64.594383 -0.2706871 0.86051613 0.43155599
2.6132669 -83.62043 54.372437 -0.022488592 0.84947461 0.52715009
4.8073339 -83.476097 53.823917 0.087320432 0.83141243 0.54875177
17.50028 -84.658829 57.835186 -0.10546673 0.79729193 0.59430832
21.049059 -85.52211 59.944206 -0.11909727 0.80327106 0.58358485
23.560526 -84.975029 60.042618 -0.17865683 0.80875099 0.56036019
27.467197 -86.964622 64.516403 -0.31062421 0.75753617 0.57415301
28.967438 -85.759834 63.202599 -0.24545079 0.82483882 0.50930816
30.444248 -86.747444 65.295044 -0.30117181 0.84508771 0.44172654
8.0122585 -84.637306 55.714909 -0.10104062 0.84472907 0.52556986
15.902612 -86.151245 59.235126 -0.12477913 0.80736697 0.57670516
22.085245 -86.79126 61.65543 -0.16047724 0.81646347 0.55464804
0.15845235 -85.180504 56.123928 -0.13076875 0.82882214 0.54401618
4.3549914 -84.088531 55.11108 0.017935786 0.85031605 0.52596664
9.0863953 -84.976616 56.664822 -0.06803824 0.79754668 0.59940809
10.929645 -85.850266 57.858044 -0.10293305 0.85967213 0.50036848
20.441776 -86.56002 61.491066 -0.13704804 0.80255008 0.58063
24.457785 -87.278793 63.256519 -0.094286785 0.85844898 0.50415814
5.1287012 -84.980415 56.245548 0.030325763 0.8332352 0.55208641
2.9389324 -85.274994 57.026196 -0.031835731 0.81604338 0.57711321
12.728227 -86.340378 59.223213 -0.08413662 0.81570685 0.57231408
27.663996 -88.057892 65.437569 -0.24353868 0.8148455 0.52603787
4.1771097 -86.28344 58.04055 -0.02744996 0.77675837 0.62920028
15.34431 -86.66761 60.305859 -0.09553311 0.83567423 0.54085296
17.770678 -86.619408 60.544579 -0.15041231 0.81293315 0.56259751
18.662146 -87.84523 62.451935 -0.16191117 0.83622628 0.52393723
6.9609365 -85.587891 57.265297 -0.023906844 0.80709052 0.58994353
10.198882 -86.521698 59.666225 -0.13648079 0.8452667 0.51662093
23.385199 -88.499542 65.000648 -0.1019104 0.81346482 0.57261622
24.787973 -88.149193 64.24749 -0.15229802 0.8461864 0.51066023
26.614498 -88.767006 66.913567 -0.16418804 0.93027908 0.32805961
2.1332421 -85.693542 57.302731 -0.071311787 0.78216034 0.61898279
6.2006302 -87.58947 60.225586 -0.037347768 0.8459205 0.53199965
8.266963 -86.894829 58.841412 -0.086677663 0.83656526 0.54096717
10.688313 -87.998657 61.236164 -0.09203513 0.81501311 0.57208681
13.68553 -87.869194 61.597496 -0.090212911 0.83394641 0.54442161
16.807762 -88.217178 62.678413 -0.08898595 0.84849864 0.52166235
20.97311 -88.384346 64.569016 -0.17760448 0.85288316 0.49096528
23.91164 -89.194481 66.782608 -0.18707405 0.9108513 0.36790392
15.243135 -88.126671 62.335892 -0.10605238 0.87010014 0.48133001
2.4784508 -87.461906 59.243805 -0.0068391259 0.84171802 0.53987414
4.2618527 -87.844444 60.160946 -0.021928854 0.83298874 0.55285519
7.8171325 -87.864243 60.442017 -0.098529898 0.8277688 0.55235016
8.3077765 -88.703857 62.085007 -0.079024591 0.8997913 0.42910454
17.57847 -89.387619 64.671143 -0.15715742 0.83371872 0.52935308
21.944504 -90.02916 66.861328 -0.13663135 0.81866884 0.55777526
37.392048 -75.313309 52.335804 -0.28442085 0.77001595 0.57112181
-0.90645862 -86.540779 58.119061 -0.041751165 0.83490992 0.54880077
0.41839212 -86.908173 58.652515 0.015423847 0.82300007 0.56783193
10.328747 -88.604088 62.444679 -0.079732209 0.84502751 0.52874494
12.159851 -89.048058 63.296162 -0.11219646 0.8382811 0.53356981
15.146372 -88.715294 63.818096 -0.10645884 0.84161508 0.52948147
18.233944 -90.235413 66.214584 -0.13056603 0.84949434 0.51118678
20.211462 -88.982605 65.257584 -0.14658666 0.8036288 0.57679558
-17.865932 -78.562561 50.382381 0.20777714 0.77272558 0.59976977
3.9772646 -89.404243 62.530426 -0.058750492 0.87193775 0.4860791
14.012908 -89.744263 64.535973 -0.13978314 0.82697922 0.54457873
15.518312 -89.881615 65.368904 -0.055725593 0.83752733 0.54354632
45.003414 -97.202682 68.059608 -0.11610684 0.80286252 0.58474863
-2.7992666 -87.580154 60.058342 0.020648878 0.85515529 0.51796055
10.570814 -90.076508 64.420898 -0.080836415 0.83131212 0.54989606
0.70924389 -89.347588 62.509056 0.013684352 0.8251496 0.56474847
0.6884346 -87.866386 60.464329 0.033764269 0.85605073 0.51578796
7.8080344 -89.748428 63.782669 -0.00030072921 0.82758659 0.56133801
13.843415 -90.76123 66.547745 -0.11843545 0.86971331 0.47913647
15.483925 -90.697632 66.465363 -0.068737879 0.88868958 0.45332766
46.177429 -74.937912 56.47694 -0.33571991 0.7616694 0.55421287
-0.88156658 -88.593559 61.502987 0.012130548 0.79180622 0.61065185
1.0993475 -89.845879 63.156757 -0.058805536 0.88148922 0.46852824
12.099452 -90.347267 65.373817 -0.085416324 0.87600011 0.47468707
15.117633 -91.325668 68.025902 -0.13745213 0.85657716 0.49737543
18.250103 -91.293503 68.445801 -0.081723131 0.88903469 0.45048723
20.396254 -90.984566 68.014633 -0.10129433 0.84741181 0.52118391
-53.294579 -61.561497 45.415596 0.0058045555 0.66179812 0.7496596
42.124115 -97.65506 68.434128 -0.19253694 0.80036527 0.56775421
42.993538 -98.119781 69.384087 -0.16887428 0.84750164 0.50321215
45.578865 -98.300476 69.99894 -0.11789092 0.85628676 0.50286639
-2.8567686 -88.896011 62.077263 0.071909383 0.81669253 0.57257521
-2.1353037 -89.754639 62.728088 0.035829067 0.86079156 0.50769484
3.7994461 -90.131409 63.799347 -0.034050837 0.82021326 0.57104361
5.9984012 -89.311783 63.622211 -0.094415992 0.84702456 0.52310133
9.0169849 -90.953766 65.736198 -0.076242693 0.87952495 0.46970516
12.197793 -91.643394 67.412476 -0.042962596 0.84406513 0.53451675
6.6094627 -90.947495 65.559204 -0.056586113 0.84561402 0.53078699
10.724252 -91.56427 67.812569 -0.09208636 0.88598186 0.45448455
19.525978 -92.085403 70.210976 -0.096049473 0.84948391 0.51879835
-23.2101 -41.948074 15.84793 -0.11758733 -0.51442236 -0.84943682
-0.23042452 -90.421272 63.915752 0.088552676 0.86637962 0.49147198
10.820218 -92.255127 68.937355 -0.018619165 0.77950996 0.62611306
12.383452 -92.593063 68.850685 -0.10638181 0.84078604 0.53081238
16.032108 -92.648888 70.304604 -0.13355069 0.83972597 0.52633113
41.040916 -99.191795 69.519905 -0.24468865 0.86635661 0.43537763
43.076344 -98.975494 71.065231 -0.23786658 0.81328899 0.53101838
-5.5154867 -89.914848 63.516273 -0.076520137 0.87374216 0.48033246
-3.665756 -90.112854 64.171127 0.016193222 0.8753376 0.48324099
0.12854683 -90.84465 65.252747 0.027324079 0.84974504 0.52648526
3.9476783 -91.185852 65.207115 -0.11408609 0.8545453 0.50669199
17.146156 -93.285919 71.185738 -0.052326538 0.77670312 0.62768954
38.305725 -99.525818 70.5868 -0.018764002 0.87236083 0.48850232
41.130474 -99.937202 71.429947 -0.078102559 0.8286894 0.55423272
-1.7282753 -90.263214 64.401924 0.025391908 0.86918324 0.49383765
5.1062322 -91.775154 67.248993 -0.043848637 0.88128388 0.47054866
7.7550077 -92.447662 68.222725 -0.073849998 0.864447 0.49727008
39.878063 -100.46923 72.391937 -0.0014132068 0.69062501 0.72321171
-5.6706076 -91.315361 66.029884 0.0051651904 0.8466273 0.53216118
-2.7668896 -91.950203 66.898582 0.03311915 0.83533996 0.54873508
0.24716489 -93.309944 68.87793 -0.078883871 0.90843117 0.41052431
10.167112 -93.487206 70.606667 -0.033286881 0.8687706 0.49409485
9.820055 -93.217674 69.682281 -0.036107808 0.86512327 0.50025779
40.432903 -75.164764 53.768238 -0.33277485 0.7208913 0.6079281
44.466801 -76.414024 57.1987 -0.3647401 0.7059899 0.60707736
45.37915 -75.77684 57.570152 -0.31952769 0.68858647 0.6509614
1.4285938 -91.799599 66.256706 -0.0086348746 0.86131871 0.50799167
2.5373347 -92.331367 67.917519 -0.082920246 0.8823666 0.46319917
6.4138222 -93.572754 70.625854 -0.052913919 0.87923449 0.47344157
12.268877 -93.626221 70.738258 -0.094914481 0.88269413 0.46026313
13.594191 -94.246269 72.390335 -0.039991438 0.88221091 0.46915305
37.89632 -100.43607 71.621132 -0.1740959 0.76112646 0.6248017
-0.86204761 -92.779472 68.07605 0.056093231 0.86445355 0.49957344
3.4185736 -93.543884 69.668365 -0.024806151 0.86311632 0.5043956
7.1282539 -94.447823 71.614075 -0.019327065 0.84660375 0.53187269
8.7396135 -94.816124 72.652313 -0.08759094 0.869425 0.48623863
41.72794 -101.47222 72.61808 0.064217977 0.60996741 0.78982013
-7.3619547 -91.914215 67.277908 0.020473488 0.88735062 0.46064049
-4.7562189 -92.345757 67.632706 0.063815713 0.88248837 0.46598464
11.634315 -94.43483 72.554825 -0.11669442 0.90275514 0.41402364
14.124172 -95.213272 73.494995 0.48751497 0.75939536 0.43086877
7.3469419 -23.556585 5.5575347 0.077472843 -0.36941433 -0.92602974
38.593678 -101.88293 73.283051 -0.070948839 0.7146222 0.6959033
-4.0781097 -93.029907 68.925804 0.063911013 0.86528248 0.49719375
-2.7355278 -93.870544 70.314278 0.015000513 0.87277627 0.48788989
36.222034 -102.01653 72.701782 -0.13498831 0.86614799 0.48121285
37.03159 -102.38261 74.069969 0.044423275 0.78206801 0.62160772
-6.1984024 -94.040359 70.763458 0.069585033 0.84950846 0.52296579
0.15622312 -94.077583 71.006561 -0.022953294 0.89065951 0.45409119
2.5135086 -94.689529 71.722298 -0.015330604 0.90234733 0.4307369
39.414646 -102.63126 74.077354 0.056651626 0.68766558 0.72381407
-6.246758 -92.976776 69.406586 0.032045349 0.86044407 0.50853622
4.0873885 -94.926613 72.429054 -0.01791878 0.89714772 0.441367
13.027912 -94.835464 74.069504 -0.053806979 0.91324604 0.40383956
34.806225 -102.64935 74.812675 0.055411082 0.74708575 0.66241401
-0.92360902 -94.820305 72.470604 -0.02878378 0.9167583 0.398404
4.8264852 -95.332779 73.612488 0.036825553 0.87658387 0.47983813
6.8106565 -95.855011 74.016006 -0.014938672 0.87365299 0.48632008
56.814278 -86.743095 58.556252 -0.096814074 0.71321493 0.69422722
33.278461 -103.42055 75.346931 0.13806741 0.40607703 0.90334868
34.083534 -103.21891 74.545525 -0.51311916 0.79861003 -0.31453279
36.621426 -103.78824 75.078323 0.11930697 0.41576868 0.90161091
-9.6148882 -93.483704 69.970337 -0.017344482 0.86460608 0.50215089
-11.170311 -93.550995 70.522331 0.14996465 0.89488465 0.42034751
-8.3642025 -94.211617 71.056747 0.044354711 0.872334 0.48689437
1.9337209 -95.28933 73.711449 -0.011412585 0.88847995 0.45877358
9.4602385 -95.920242 74.678131 -0.11269346 0.89569932 0.43014285
32.97905 -103.89632 76.038712 0.61259943 0.5020771 0.61044294
34.305202 -104.83226 75.477669 0.23892888 0.26040623 0.93546861
-13.275624 -93.296745 70.992081 0.13617964 0.82838464 0.54335439
-4.6944222 -94.909241 71.76857 -0.013139724 0.89421302 0.4474487
6.6089945 -96.601486 75.875092 -0.094441779 0.91992831 0.38054258
8.5667667 -96.903 77.13047 -0.091451541 0.89640427 0.43370026
35.639336 -75.936417 52.2757 -0.21631438 0.71820998 0.661349
-25.287405 -43.528111 17.110838 -0.1188069 -0.5283215 -0.84069103
-10.226842 -94.233322 71.655853 0.094610907 0.87349099 0.47755858
-3.6820648 -95.831734 74.277542 -0.01931658 0.92934257 0.3687129
-2.618701 -95.371536 73.380798 -0.05261134 0.88029021 0.47150946
3.8428879 -96.302811 75.268013 0.037300453 0.86781162 0.49549124
-1.7284888 -96.40271 74.989128 -0.0067138667 0.88994271 0.45602301
1.4022689 -97.292084 77.302055 0.019578304 0.87100583 0.49088249
7.1769266 -97.616867 78.039749 -0.070046298 0.84500581 0.53014976
