# .PCD v0.7 - Point Cloud Data file format
VERSION 0.7
FIELDS x y z normal_x normal_y normal_z
SIZE 4 4 4 4 4 4
TYPE F F F F F F
COUNT 1 1 1 1 1 1
WIDTH 733
HEIGHT 1
VIEWPOINT 0 0 0 1 0 0 0
POINTS 733
DATA ascii
-7.6049027 -7.0670948 35.468388 0.066104531 0.93301249 0.35372016
-89.812805 12.014792 -18.338541 -0.31650087 0.88835168 0.33265364
-93.059761 12.553679 -23.053699 -0.34650889 0.88376933 0.31445718
-99.150177 11.864885 -29.235743 -0.4353317 0.85864294 0.2705895
-92.493118 11.673833 -20.311687 -0.35701045 0.87198091 0.33495203
-100.56193 13.596821 -38.117977 -0.46088475 0.85920405 0.22215697
-101.65176 11.388334 -32.19743 -0.47519398 0.84537268 0.24399956
-90.304604 11.0526 -16.347633 -0.32303029 0.88182676 0.34355909
-102.9126 9.8848104 -29.656332 -0.49313244 0.83118016 0.25682685
-97.783485 11.498797 -26.396734 -0.40053508 0.86864072 0.2916075
-97.868851 10.331851 -22.889429 -0.41171139 0.8575688 0.30833343
-104.30597 11.264494 -37.653999 -0.5256604 0.82510304 0.20708963
-94.655586 10.370267 -19.083359 -0.36473909 0.8726545 0.3247146
-92.774345 10.046354 -16.229507 -0.35574618 0.87059075 0.33987701
-91.116013 7.9817505 -9.4668818 -0.32787919 0.86653513 0.37631401
-95.338364 7.9087491 -13.523366 -0.37685448 0.85868979 0.34732196
-96.376419 9.050765 -17.569523 -0.40839392 0.853149 0.32457846
-101.57951 6.759953 -18.539545 -0.45211342 0.83763486 0.30653101
-103.12943 8.0450573 -24.388744 -0.49217719 0.82252973 0.2849673
-78.892197 4.0962925 6.9082909 -0.22782962 0.87302786 0.43117982
-92.086937 5.6001372 -5.0771232 -0.33452559 0.85683936 0.3923251
-99.748322 6.765347 -15.870881 -0.4304778 0.83944118 0.33170369
-94.589554 6.7875037 -10.011822 -0.37490943 0.84744722 0.37586716
-94.629089 4.5336642 -5.0993414 -0.37203667 0.84383458 0.38669351
-83.436539 4.2287769 3.908278 -0.26440161 0.86792022 0.4204835
-106.92007 5.3920178 -23.647558 -0.54683501 0.78929174 0.2792671
-98.033752 6.0053582 -11.969022 -0.41248214 0.84039295 0.35156527
-98.415321 4.4315748 -8.6996059 -0.42063272 0.82587487 0.37549806
-90.992088 3.8427064 -0.40832198 -0.33417469 0.84544188 0.4165996
-103.24267 5.1370163 -16.747034 -0.49361458 0.80759418 0.32270163
-104.38917 6.0701661 -21.124453 -0.50641227 0.80716234 0.30337372
-97.651878 3.1037047 -5.0879765 -0.41815218 0.81804961 0.39489695
-107.10548 2.3518867 -16.039661 -0.5291087 0.78435189 0.32378432
-101.33821 4.5584621 -12.642183 -0.47397667 0.80978078 0.34583423
-94.051651 3.1861506 -1.7592976 -0.38090169 0.8288976 0.40968609
-92.630798 1.7232163 2.3930576 -0.35517573 0.83150065 0.42714962
-103.68508 2.2808948 -10.659134 -0.48930183 0.79662782 0.35491943
-101.75983 1.4163066 -6.3226185 -0.46976236 0.79841924 0.37662995
-95.313057 0.83230627 1.7442298 -0.390008 0.81693947 0.4248572
-111.49722 0.91231728 -21.116543 -0.65956306 0.70073682 0.27192727
-100.84035 0.21317209 -2.5895836 -0.47049573 0.79054475 0.39201114
-92.590584 -1.5747195 8.6011124 -0.36656621 0.8103599 0.45710617
-98.181671 0.87196106 -1.0601461 -0.42729315 0.80567276 0.41025832
-44.570904 -39.940094 72.290154 -0.19667959 0.47140333 0.85970694
-109.47117 0.26685572 -15.396035 -0.60359728 0.732274 0.31534907
-106.04175 0.3133848 -9.7037678 -0.52598226 0.77419233 0.35209224
-105.14216 -1.5990947 -4.4309673 -0.51924235 0.76602721 0.37893233
-97.542053 -1.1041089 3.297462 -0.42632452 0.79328287 0.43468347
-94.828636 -1.188936 5.9556704 -0.39890888 0.80354929 0.44179207
-108.46395 -1.2188174 -10.075663 -0.57600641 0.73839581 0.35069686
-100.94371 -2.5454071 2.3880255 -0.45991632 0.77873307 0.42667535
-112.9053 -2.2114365 -16.676405 -0.73311675 0.6208697 0.27759835
-96.284569 -3.520191 8.7470398 -0.41693023 0.78603256 0.45642307
-110.84732 -3.6332347 -9.3791676 -0.65448159 0.68086123 0.32875779
-99.851509 -3.9988797 6.1499777 -0.46169293 0.76615399 0.44704354
-108.05737 -3.7057297 -4.5801678 -0.57108557 0.72851115 0.37832877
-103.32295 -2.4497819 -0.40219474 -0.50369328 0.76128691 0.40833238
-98.966057 -5.3787189 9.3269281 -0.45263234 0.76012969 0.46618333
-94.980675 -5.7514386 13.683663 -0.41847545 0.77110189 0.47987509
-91.189972 -6.5795207 18.054039 -0.38043147 0.77962172 0.49745539
-103.98078 -4.9325004 3.2594178 -0.52351457 0.73632944 0.42866239
-113.61079 -6.9093137 -8.7455988 -0.84100914 0.45621431 0.29081285
-107.69189 -5.0834441 -1.4071482 -0.5764997 0.7137562 0.39774391
-105.14362 -7.2220864 5.6257286 -0.5336982 0.71940464 0.44454825
-110.33808 -5.0266638 -5.7159271 -0.66290635 0.65464479 0.36331183
-102.0732 -7.1935816 9.0932446 -0.50494856 0.73064971 0.45954102
-112.95692 -9.164753 -3.7706113 -0.90747082 0.30913147 0.28448993
-97.687241 -8.3708124 15.327178 -0.4657585 0.73540127 0.49219319
-110.81838 -7.6393003 -1.9728533 -0.68058842 0.62077045 0.3891573
-100.35336 -8.0967236 12.308379 -0.49955413 0.72295886 0.47725898
-108.64646 -7.7017107 1.7211796 -0.62923825 0.65688622 0.41540328
-105.89103 -9.7349615 8.5609465 -0.59162152 0.65993428 0.46310976
-96.810745 -11.468154 20.51737 -0.46341819 0.71123534 0.52857143
-110.10046 -11.577631 5.2764821 -0.72014725 0.55340326 0.41848868
-97.976234 -10.907394 18.754959 -0.47908288 0.71438223 0.51003677
-93.254936 -10.796453 22.585407 -0.43387601 0.72809452 0.53068823
-97.98983 -13.958397 22.784163 -0.48490065 0.68861181 0.5391522
-102.38641 -12.023574 15.928267 -0.55981004 0.66602099 0.49297953
-92.362236 -12.538973 25.696646 -0.4217805 0.72110057 0.54965007
-109.58585 -14.056682 9.1006155 -0.79375345 0.42290196 0.43716064
-101.24821 -13.644957 19.238258 -0.54633641 0.65598428 0.52076977
-105.31876 -11.878851 12.284948 -0.60433394 0.63266414 0.48426914
-105.48523 -16.885532 18.21101 -0.63419002 0.58306283 0.50778008
-95.178871 -15.362159 27.028627 -0.47428441 0.67910141 0.56024599
-107.05663 -16.875051 15.849405 -0.83440185 0.29381749 0.46630988
-101.29511 -16.717964 22.89621 -0.57937771 0.59942091 0.55228263
-96.00338 -17.654705 28.936401 -0.52714521 0.62738413 0.57315528
-96.003639 -19.765005 31.183924 -0.55004156 0.57492286 0.60573757
-100.1472 -19.896404 27.313046 -0.58895272 0.5642035 0.57862693
-102.07545 -21.151829 26.207567 -0.80329162 0.24063994 0.54480731
-97.088219 -24.492968 34.322811 -0.72755045 0.27388808 0.62901175
-65.723618 -38.712147 64.133911 -0.46602678 0.18774225 0.86462235
-16.646406 22.057667 -38.716946 0.073154129 0.93156266 0.35614541
2.4433062 15.287941 -24.746452 -0.025488252 0.93174654 0.36221361
-27.426464 39.023445 -93.583748 -0.049826961 0.99659884 0.065634668
-38.575378 38.071117 -104.33551 -0.13169917 0.98777753 -0.083371326
-25.40028 37.49826 -71.480797 -0.19526765 0.90479267 -0.37844521
-37.599838 35.895199 -62.018543 -0.20213924 0.97800839 0.051374394
-41.666359 34.865681 -58.176842 0.28619 0.83822477 0.46419236
-45.079605 37.062862 -85.702454 -0.10340758 0.98990101 0.096968688
-61.221397 24.471811 -28.390261 -0.5645169 0.81113291 0.15291865
-83.720108 24.499123 -54.446342 -0.31464991 0.93134969 0.18325724
-97.673782 19.414566 -68.902618 -0.54997146 0.83516538 -0.0054967683
-23.653679 39.312302 -95.061813 -0.026586639 0.99810714 0.055456657
-19.455959 39.589886 -99.704239 -0.018121183 0.9996919 0.016961493
-20.356564 39.141171 -92.666809 -0.010276786 0.99652386 0.082671627
-15.930039 39.363426 -95.077171 0.0035380411 0.99784726 0.065485522
-17.971302 38.966095 -90.49057 -0.0016768384 0.99481541 0.10168346
-24.892748 39.048779 -92.584686 -0.029242333 0.9951762 0.093644597
-20.505402 38.630341 -88.003441 -0.011183621 0.99224854 0.12376437
-16.504143 38.640244 -87.800499 0.010031439 0.99111444 0.13263337
-23.670506 38.724098 -88.958923 -0.015580164 0.99310064 0.11622572
-21.462259 38.038769 -83.771263 -0.00803921 0.98830307 0.15229093
-17.059923 38.138618 -84.428238 0.016951291 0.98683351 0.16084856
11.93582 36.375713 -73.732361 -0.053455729 0.51894569 0.8531341
10.969823 34.311394 -72.955246 -0.0041143838 0.66859436 0.74361593
-4.9470925 38.361347 -75.241898 -0.015940292 0.99620008 -0.085622899
2.8658197 36.924507 -74.223907 0.0048891008 0.48787194 0.87290156
21.243612 32.672604 -70.753983 -0.10189871 0.64584142 0.75664091
8.2373629 34.667538 -73.212761 -0.017886797 0.54221272 0.84005076
31.766008 30.502014 -66.679031 -0.1941731 0.65528548 0.72999847
5.1367426 34.838142 -73.304192 0.018420167 0.59712809 0.80193436
15.216982 33.680035 -72.321457 -0.040922113 0.62151366 0.78233373
-26.777458 38.26329 -85.766808 -0.025822401 0.99029303 0.13657556
-3.6362882 37.881756 -74.259193 0.10402045 0.60180962 0.79183638
3.530781 35.095623 -73.446335 0.042848058 0.6100657 0.79119146
0.044017415 35.290581 -73.377251 0.052419152 0.58824795 0.80697989
7.7825694 33.951977 -71.988396 0.03384221 0.81918907 0.57252419
11.472759 33.475597 -71.440056 0.037087515 0.81471294 0.57867724
37.568291 31.716267 -64.940643 -0.2485043 0.67311203 0.69653839
-29.394897 37.676407 -82.399719 -0.031144468 0.98807561 0.15078668
-24.008123 37.549648 -80.985252 -0.012018322 0.98607117 0.16588943
-15.91203 38.388618 -72.395485 0.084139414 0.9138397 0.39726248
-10.808166 38.613358 -73.562302 0.17871006 0.68410105 0.70715505
11.726243 32.298527 -70.186333 0.043555349 0.88669294 0.46030277
39.051399 30.313368 -63.276947 -0.39339912 0.48848537 0.77885759
2.500283 34.328705 -72.20256 0.035907775 0.80321378 0.59460765
-35.702965 37.879513 -86.032181 -0.059056632 0.9918896 0.11254933
-14.018405 37.65398 -72.127319 0.24966143 0.45506674 0.85474169
-8.7654428 37.489902 -73.294769 0.13946374 0.53173447 0.8353492
-3.0450494 35.286228 -73.179291 0.09051843 0.64936757 0.7550683
8.8815947 32.621445 -70.470947 0.047090743 0.85537088 0.51587117
26.734753 29.615202 -65.931122 0.012198479 0.8842448 0.46686429
-6.7569032 35.157627 -72.471199 0.11498486 0.66144741 0.74112469
15.64221 31.898561 -69.616837 0.031262916 0.848975 0.52750742
19.127537 31.048168 -68.491577 0.030320579 0.88991761 0.45511252
14.488462 31.021307 -67.464111 0.062660605 0.91762793 0.39246982
22.596361 30.062969 -66.625587 0.01581859 0.88481194 0.46567973
-0.65087664 33.757462 -71.394897 0.054737717 0.87017202 0.48969811
5.9149833 32.621162 -70.06897 0.058216885 0.89541394 0.44141194
-33.833481 37.043339 -79.465462 -0.043874148 0.98548377 0.16400252
-9.8882484 35.318237 -72.186958 0.13453032 0.6396969 0.75676244
-48.68734 36.706291 -86.542549 -0.12953685 0.98946047 0.064715385
-38.777966 37.286171 -82.924568 -0.068285398 0.98831588 0.13626763
-19.377762 37.016148 -70.103142 0.25526139 0.50731152 0.82308966
-12.251014 35.435589 -71.729469 0.19717614 0.54274023 0.81642801
-6.5041838 33.67738 -70.222069 0.082255624 0.88548428 0.45733082
16.035864 30.16671 -65.787582 0.071152806 0.92372715 0.37638476
-39.245441 36.612461 -78.707756 -0.06474217 0.98526782 0.15829006
-29.213263 36.58736 -76.113426 -0.040952027 0.9902693 0.13300221
-3.6294239 33.66502 -70.879784 0.073124751 0.88214535 0.46526599
11.134101 31.313332 -67.765656 0.065884233 0.92433256 0.37585697
20.840803 29.558287 -64.948029 0.060588732 0.93046618 0.36133316
23.343374 28.889076 -63.773106 0.060795087 0.92921257 0.36451057
25.66279 28.304344 -62.636192 0.068487011 0.92678249 0.36930156
-50.682415 36.570095 -89.383133 -0.16579354 0.98539233 0.038916651
-42.855526 36.652092 -80.642906 -0.080280498 0.98719031 0.13787791
-21.975189 37.169247 -69.325943 0.30502391 0.50990736 0.80433512
40.53717 27.377127 -60.906769 -0.23557605 0.71916068 0.65369093
44.378513 26.033894 -57.975525 -0.39884022 0.56036103 0.72589397
-53.984184 36.016899 -89.774353 -0.17945747 0.98347372 0.023968274
-54.139202 35.824932 -86.106857 -0.16244803 0.98451209 0.06592872
-24.206217 37.889847 -69.029068 0.20164043 0.78105009 0.59101766
17.429802 29.574875 -64.527275 0.0574474 0.92905831 0.36544555
-32.533585 36.155365 -74.231651 -0.05262145 0.98747927 0.14871353
20.417948 28.553288 -62.272919 0.061730865 0.93193775 0.35732526
-46.443436 36.181534 -79.535408 -0.10564612 0.98594558 0.12942268
-44.985474 35.993965 -77.377724 -0.089120485 0.98220855 0.16529933
-38.714314 36.030029 -75.038811 -0.054907903 0.98255354 0.17768952
-9.9275684 32.958435 -67.936157 0.068994626 0.9261182 0.37087023
0.27232921 30.833838 -64.371384 0.067321882 0.9301191 0.36103493
49.551044 26.274391 -54.456497 -0.44778153 0.60618359 0.65729231
-14.694478 33.769001 -68.880386 0.11843842 0.86891299 0.48058558
-10.780069 33.732239 -69.760246 0.09801548 0.86240524 0.49663872
-28.683342 36.974972 -66.556107 0.30218053 0.57149297 0.76294351
-25.178123 35.317085 -67.212662 0.31196645 0.50153989 0.80692917
-58.451515 35.017254 -87.634651 -0.20547292 0.97858781 0.012114299
6.6426315 30.115406 -63.834179 0.074274175 0.92759413 0.36613187
49.488865 23.416058 -52.397293 -0.31892073 0.74234205 0.58925194
-36.138985 35.650047 -72.424728 -0.074122034 0.98524636 0.15425837
-17.432032 33.093712 -66.851562 0.087933682 0.91263556 0.39920419
-5.7881875 32.695156 -68.147224 0.069354862 0.92572635 0.37178025
24.953873 26.941839 -58.972122 0.066148743 0.9319855 0.35640907
-42.18903 35.90081 -75.778206 -0.070922107 0.9829179 0.16983072
-27.80504 34.398407 -65.855591 0.33240247 0.55770457 0.76057494
17.050482 28.753313 -62.363331 0.053902291 0.93364012 0.3541337
42.203285 24.378391 -55.653133 -0.0083908793 0.90094757 0.43384683
51.546783 24.078836 -51.303726 -0.515643 0.59158933 0.61978573
-61.313541 34.347115 -90.564606 -0.24235775 0.96966344 -0.031867508
-21.165401 33.369228 -66.539803 0.11685169 0.86495101 0.48806292
-59.600735 34.817928 -86.810959 -0.20941181 0.97756606 0.022612438
-45.291618 35.38913 -74.213951 -0.085020475 0.98106563 0.17401688
-4.7800331 30.4631 -62.581657 0.053637236 0.93247503 0.35722986
-2.7186034 30.03924 -61.724491 0.060794 0.92773658 0.3682512
1.9658549 29.888983 -62.235317 0.071932741 0.92969871 0.36122847
5.7129841 29.15147 -61.07198 0.078701079 0.92438942 0.37324303
-33.358604 36.824074 -64.570892 0.057248194 0.86528385 0.49800256
45.83419 23.221645 -52.759506 -0.072972715 0.88225418 0.46508333
47.623219 21.704239 -49.652653 -0.056191724 0.8945154 0.44349143
-62.538502 34.10664 -86.843399 -0.24702455 0.9690088 -0.00086478423
-50.450588 35.434277 -77.673561 -0.11646907 0.98271298 0.14391008
-14.385416 32.626339 -66.273804 0.071967162 0.92602801 0.37053052
-41.889538 35.315372 -72.424927 -0.073028527 0.97923619 0.18911205
1.0052534 29.001936 -59.898262 0.068501927 0.92289251 0.37891543
32.521431 24.2766 -53.521637 0.068109393 0.93178684 0.35655916
52.84063 21.217356 -47.468876 -0.31025431 0.77438521 0.55142528
-58.537056 34.800442 -82.734772 -0.18737252 0.97943193 0.074864581
-53.694736 34.460854 -73.838524 -0.12585764 0.97968715 0.15611827
-41.442451 34.69809 -69.24334 -0.08886636 0.98127413 0.17089149
-31.98177 33.610165 -63.253834 0.39561698 0.55656838 0.73056066
-21.223585 32.541599 -64.609581 0.084091693 0.92304671 0.37538418
14.254193 26.825075 -56.899971 0.061052941 0.92937326 0.36405757
18.306675 26.515644 -56.868023 0.060557771 0.92771316 0.36834925
35.711693 23.628099 -52.410095 0.070112802 0.93092275 0.35842299
-58.468227 34.204586 -76.826851 -0.16648337 0.97789735 0.12649198
-24.516764 33.223103 -65.495514 0.16309173 0.82599127 0.53957343
-21.595562 31.45759 -61.752945 0.080715731 0.92592597 0.36897996
-11.38078 30.627373 -61.789677 0.074325942 0.92513686 0.37228695
29.512897 23.564432 -51.082241 0.065627232 0.93085784 0.35943943
-68.506721 32.434662 -89.552414 -0.30399817 0.95144713 -0.04830689
-3.2384248 29.213095 -59.673687 0.063304149 0.92836505 0.36623898
21.927225 25.946079 -55.91433 0.057216156 0.93111992 0.36019716
31.67075 23.190039 -50.515179 0.068636306 0.92914575 0.36328664
36.75996 22.958027 -50.932224 0.074521765 0.9276343 0.36597961
-45.625793 34.612965 -70.364777 -0.077981077 0.97774088 0.19478637
-7.5732207 29.510403 -59.738838 0.063219935 0.92831933 0.36636937
-3.3628914 28.441431 -57.687458 0.072893202 0.92561907 0.37137046
-0.93654871 27.875521 -56.783081 0.070529863 0.92581505 0.37133831
56.569923 21.193766 -43.999577 -0.53755289 0.62927818 0.56128943
-57.155491 33.526237 -70.849037 -0.14110547 0.97655088 0.1625963
-11.678772 29.195766 -58.215786 0.078473702 0.92666 0.36761808
17.369841 24.587349 -51.609142 0.060743157 0.9333955 0.35367084
-49.926811 34.665955 -72.251396 -0.09466932 0.97952288 0.17768694
-38.167362 34.651905 -60.239223 0.30653158 0.66027755 0.68561786
-29.984873 33.031509 -63.344955 0.17670928 0.83368415 0.52320606
-9.8757486 28.474482 -56.56583 0.058219332 0.93273038 0.35584328
50.636307 20.371435 -46.4547 -0.040464096 0.9045611 0.42441943
-3.4217491 26.986557 -54.060848 0.071342401 0.92755938 0.36680222
39.278572 21.961033 -48.94104 0.067801669 0.93021476 0.36069855
42.451851 20.996943 -46.995663 0.067891777 0.92982298 0.3616904
54.992058 19.935789 -44.489422 -0.32646763 0.78247339 0.53023988
-52.010311 33.821712 -69.187523 -0.10909221 0.97607821 0.18806952
-48.823704 33.442516 -65.872231 -0.087459087 0.97526526 0.20299891
-33.510403 32.012562 -60.520237 0.19599533 0.84427863 0.49877796
-20.706974 29.878309 -57.96133 0.0799779 0.92709476 0.36619511
-13.729121 29.811335 -59.199181 0.079721585 0.92771661 0.36467284
43.815235 20.227573 -45.212502 0.063683882 0.93388712 0.35185128
50.837387 19.448389 -44.522442 -0.0040454464 0.92395264 0.38248548
-24.99169 30.98505 -59.807751 0.082146786 0.92634809 0.36760169
-22.790127 30.381226 -58.881718 0.082515575 0.92617297 0.36796021
-6.8205662 28.086933 -56.109192 0.070355631 0.92659801 0.36941344
5.4698353 25.721569 -52.548286 0.071832255 0.93222594 0.35467589
57.461609 18.022091 -39.816936 -0.43580779 0.73847842 0.51451063
-15.762672 28.534973 -55.458897 0.073542371 0.92913806 0.3623451
10.177478 24.552181 -50.346546 0.055883866 0.93753868 0.34336311
12.285422 23.873768 -48.606777 0.059325453 0.94035548 0.33498073
44.756214 19.610363 -43.775486 0.074650213 0.93328536 0.3512916
-19.173031 29.188715 -56.69762 0.073450647 0.92691177 0.36802116
26.445391 21.585733 -45.454647 0.066060379 0.93257642 0.35487634
47.277866 19.569208 -44.199223 0.059057035 0.93263316 0.35596019
54.830009 18.117613 -40.733604 -0.082918778 0.89869791 0.43065825
-51.011997 32.523762 -62.673851 -0.099603623 0.97100204 0.21733434
-30.710138 30.895836 -58.536831 0.077247128 0.92638344 0.36857376
-27.943552 30.564112 -58.128063 0.067519724 0.93337184 0.35250279
2.7165616 25.212481 -50.554207 0.064935751 0.9355737 0.34710976
6.7766032 24.833036 -50.388683 0.071327463 0.93678379 0.34256172
33.098206 20.305231 -43.416355 0.073787495 0.93171537 0.35561466
-64.11306 32.810154 -74.251129 -0.20610678 0.97038746 0.12596901
-53.653698 33.027103 -66.0373 -0.11006093 0.97348702 0.20052326
-35.496834 31.23637 -58.389416 0.15800989 0.8721441 0.46303073
11.324844 23.559902 -47.736023 0.062116634 0.95145565 0.30145264
38.603111 19.872362 -43.411472 0.069267668 0.93115425 0.35798565
47.996429 18.320827 -40.853336 0.063468203 0.93546343 0.34767804
-58.571297 31.977268 -63.866234 -0.12805237 0.97145253 0.19970627
-54.730255 32.240742 -62.903061 -0.11146782 0.97154158 0.20900179
-47.765873 32.396172 -60.364407 -0.1833718 0.97481465 0.1269301
-26.414289 29.652412 -56.172501 0.082568705 0.9273712 0.36491796
-6.7455955 26.572769 -52.406433 0.070988812 0.92878586 0.36375451
-47.008987 32.747452 -57.319904 -0.39619642 0.91087568 -0.11547242
-8.1654968 25.782373 -50.007984 0.073723875 0.93039775 0.35906115
49.712696 17.47723 -39.040997 0.070936263 0.93224686 0.35480124
58.571152 17.319235 -37.622372 -0.39672491 0.78240317 0.48005691
-20.014862 28.009581 -53.49332 0.062991597 0.93407255 0.35148343
-4.6882777 25.810345 -50.723297 0.072512992 0.92863846 0.36383012
-73.409332 30.840502 -79.5289 -0.30099425 0.95308745 0.032044716
-63.707317 31.492851 -65.289825 -0.16226271 0.97054887 0.17806055
-47.624989 33.053509 -54.935223 -0.4496884 0.88252193 -0.13760582
-33.708336 30.05238 -55.741779 0.073471509 0.93181407 0.35542148
-30.198988 29.578909 -55.080078 0.075110614 0.93104976 0.35707814
-23.957306 29.033817 -55.126427 0.084169336 0.9252854 0.36981407
-22.545414 28.421103 -53.905758 0.086180486 0.92633104 0.3667202
-17.02762 27.646965 -52.896923 0.082735047 0.92549336 0.36961728
18.994371 21.732555 -44.395077 0.072722398 0.93102986 0.35762393
30.551481 20.875374 -44.332203 0.07079456 0.93289876 0.35311204
38.777634 19.095318 -41.34544 0.062126052 0.93826884 0.3402822
42.676853 18.847549 -41.304249 0.066511847 0.93370014 0.35182396
-64.249084 32.111526 -69.518219 -0.18079908 0.97156006 0.15291432
-51.878502 31.398149 -58.080967 -0.13440113 0.97083968 0.19851087
43.126686 18.297464 -40.061493 0.057603721 0.93503761 0.34983775
-47.512039 33.272449 -52.525551 0.0089309681 0.95192885 0.30618918
-36.38501 29.630354 -54.128296 0.067385532 0.9271782 0.36851019
-28.559402 28.84794 -53.64201 0.085739225 0.92681456 0.36560023
34.691452 19.188196 -40.719288 0.073363036 0.93699455 0.3415539
-67.183144 31.223608 -67.606194 -0.20493771 0.96711719 0.15061499
24.134209 20.866434 -43.135185 0.067365557 0.93257451 0.35463607
36.775311 18.062588 -38.022602 0.072545305 0.93605959 0.34428144
-75.806763 29.943033 -77.65316 -0.31214386 0.94904387 0.043380778
39.720901 17.944197 -38.474709 0.080068476 0.93080097 0.35664904
62.569698 16.251472 -30.525375 -0.4577466 0.78587669 0.41577139
-55.577633 31.500494 -60.215668 -0.10504889 0.96814704 0.22727962
-48.798565 32.618557 -50.979485 -0.047032308 0.94558406 0.32196048
-32.708035 28.83699 -52.614677 0.070705585 0.93150902 0.35677972
2.6049969 22.725365 -43.955364 0.053622343 0.93468922 0.35139826
9.0297251 22.038424 -43.199177 0.051484317 0.93165243 0.35968474
18.916109 20.349745 -40.758221 0.068587132 0.93160939 0.35693109
-80.342186 28.239502 -83.166527 -0.39036238 0.92015719 -0.030461153
-66.657387 30.451633 -62.702866 -0.181868 0.96491581 0.18937154
-59.490913 30.93471 -59.613499 -0.12190101 0.96759814 0.22111998
-23.441761 27.370264 -51.058208 0.075931422 0.92951471 0.36088333
-18.125969 26.599644 -50.207489 0.093630657 0.9211477 0.37778336
-14.652549 26.511757 -50.844437 0.072509743 0.92806011 0.3653037
-11.905087 25.7915 -49.313942 0.063662715 0.93388247 0.35186729
-77.723183 29.215349 -75.499565 -0.34193808 0.93885434 0.040384967
-20.735523 26.920637 -50.334301 0.070617087 0.93052614 0.35935277
-6.0595655 24.595209 -47.475822 0.069788471 0.92958438 0.36194262
4.7189479 22.210934 -42.6866 0.056107793 0.93511069 0.34988537
-9.0708046 24.804157 -47.235989 0.074531063 0.92740577 0.36655632
59.936062 14.110139 -30.875675 -0.33987787 0.84174013 0.41947168
-75.162666 29.975765 -73.84549 -0.29261166 0.95295715 0.079063624
-29.64225 28.005041 -51.20166 0.08424709 0.92578888 0.36853415
-34.405811 28.176435 -50.617756 0.065426379 0.92998517 0.36172783
-33.395809 27.219151 -48.433865 0.080326885 0.9267894 0.36689088
-17.179192 25.709179 -48.199135 0.066914245 0.93378234 0.35152972
-14.0474 24.99024 -46.653561 0.06929072 0.93260044 0.35419646
-11.119351 24.131657 -45.230988 0.078970447 0.9265877 0.36769408
-30.821281 26.997217 -48.491116 0.081685185 0.92273307 0.37668458
-5.1580191 23.829336 -45.526154 0.054794014 0.93604493 0.34758839
-4.9479342 23.038923 -43.356247 0.058234911 0.93351656 0.35377318
3.1544237 21.466734 -40.558556 0.052134167 0.93731874 0.34455144
61.133068 12.651239 -27.03558 -0.50191873 0.76407528 0.40529799
-21.408577 25.449978 -46.482849 0.085846655 0.92577088 0.36820999
10.847822 20.63559 -39.723118 0.07698451 0.93110687 0.35652968
-70.79805 29.431656 -61.719376 -0.21049985 0.9605847 0.18156794
-60.365757 29.315855 -53.612324 -0.12553746 0.96135473 0.24502535
-38.984768 28.535833 -50.833336 0.086251646 0.92484188 0.37044311
-36.716763 27.573406 -48.653252 0.068437174 0.93129301 0.35778436
-18.711365 24.898529 -45.786743 0.074147344 0.93154794 0.35597828
-15.961354 24.160622 -44.226315 0.06766104 0.93066138 0.35957116
6.600657 21.4111 -41.061035 0.067767009 0.93066823 0.35953343
-31.442904 26.447676 -46.996426 0.083861552 0.93143344 0.35411707
-9.2340822 23.252972 -43.335999 0.063683748 0.93332005 0.35335258
28.800568 16.617146 -32.523754 0.074198417 0.9357509 0.34476775
-41.967323 27.743412 -48.079338 0.061093554 0.93257397 0.35577166
-34.98143 26.103365 -45.193333 0.081728011 0.92630053 0.3678149
-26.686974 25.184256 -44.849506 0.076969162 0.92730379 0.36631057
50.914608 13.016298 -27.734261 0.083160333 0.92884833 0.36100581
63.603436 13.640087 -24.176893 -0.54496413 0.75157708 0.37168002
64.314247 12.601526 -21.151077 -0.39047828 0.84992892 0.35376203
-45.280685 26.997978 -45.721058 0.094274648 0.91914719 0.38246673
-23.061577 24.654932 -44.11768 0.073243037 0.92889965 0.36301666
-44.175545 28.273376 -49.13612 0.15313938 0.88774377 0.43411911
-30.756254 25.779869 -45.274418 0.085424982 0.92716354 0.36478791
-11.884081 22.946478 -42.037254 0.074299358 0.93014765 0.35958979
-8.5555668 22.406914 -41.198055 0.055514019 0.93545753 0.34905207
15.940912 17.804022 -33.373413 0.061066497 0.94139826 0.33172321
-15.648949 22.863306 -40.983673 0.073464401 0.92904121 0.36260924
-7.9373713 21.625431 -39.085178 0.060151026 0.94192392 0.33039549
9.7413483 18.544958 -34.275738 0.076155961 0.9351455 0.34598139
47.405659 12.959337 -26.702354 0.095029145 0.92703044 0.36274526
-55.50972 29.694101 -42.659744 -0.51400167 0.8576988 0.012449809
-40.04369 26.932138 -46.329899 0.06434238 0.93317914 0.35360545
-21.138628 23.69178 -42.065842 0.071660832 0.93070048 0.35869393
36.219284 14.619731 -28.640425 0.06584584 0.93944544 0.33631343
39.041214 15.030797 -30.35885 0.0654938 0.93754542 0.34164181
61.158161 11.507205 -24.419563 -0.33582389 0.87228203 0.35545239
-53.842258 29.813883 -42.844162 0.41139069 0.75276637 0.51390696
-41.603859 25.635292 -42.635365 0.07132677 0.92783689 0.36610258
-30.871201 24.968687 -43.354069 0.082300194 0.92675275 0.36654601
-62.413155 28.12109 -49.980938 -0.13408136 0.96137464 0.24037673
-52.236279 29.465616 -43.55344 0.7220673 0.46309143 0.51397008
-11.095003 20.968414 -36.938492 0.028284248 0.94680095 0.32057455
12.527858 17.890265 -32.904396 0.06099942 0.94032925 0.33475345
48.659374 12.047272 -24.64327 0.086181059 0.93203127 0.35198084
-37.784935 26.00816 -44.396156 0.075163327 0.92800492 0.36490726
-7.1296296 20.949915 -37.092758 0.097001389 0.94130993 0.32330528
17.462528 17.345432 -32.188869 0.06253133 0.94251472 0.32826191
-44.719231 26.090973 -43.289452 0.05280279 0.93601882 0.34796643
50.292374 11.044143 -22.337154 0.087259024 0.9304657 0.35583603
62.118172 10.910815 -21.656813 -0.48540962 0.80549353 0.33993781
-57.318813 28.021341 -44.187641 -0.48411149 0.8748098 0.018542165
-20.837357 22.744946 -39.686371 0.069369346 0.93077463 0.35895175
5.4578958 18.778051 -33.889603 0.061094694 0.94140548 0.33169743
28.055534 14.702069 -27.113819 0.079329364 0.93576711 0.34357947
61.733006 9.4670486 -18.558395 -0.43082759 0.84303093 0.32200378
-11.353078 19.915459 -33.708359 -0.082068741 0.95682979 0.27882174
-9.6920795 20.352804 -34.257961 0.098217122 0.9228251 0.37248775
12.223772 16.942827 -30.179482 0.056570899 0.94170994 0.33163545
31.425571 15.1257 -29.007048 0.075543463 0.93690836 0.34131488
-21.288347 21.876022 -37.31712 0.067576446 0.9329778 0.35353357
1.9548584 18.373751 -32.310349 0.045912083 0.94375741 0.32743546
22.974581 15.378592 -27.96492 0.071620636 0.93954921 0.33484
64.250504 11.28538 -17.658875 -0.4827179 0.81083065 0.33096397
5.7155395 18.106337 -31.812214 0.071897015 0.93730128 0.34102365
25.049803 14.912381 -26.951145 0.070441209 0.93983227 0.33429524
30.45072 13.555706 -24.57238 0.073076621 0.93792248 0.33905932
33.509796 14.025621 -26.474457 0.066308565 0.93837792 0.33919027
63.236202 9.8164644 -16.226606 -0.55538422 0.77744102 0.29518446
-48.812645 26.194046 -43.054508 0.15784495 0.90146554 0.40304446
-7.1238246 19.213871 -33.114288 0.056562901 0.93211848 0.35770908
-75.151482 27.363607 -56.416435 -0.23445226 0.95097065 0.20170957
-71.885063 27.234648 -52.511139 -0.20540798 0.9528954 0.22315447
-24.358519 22.347542 -37.975441 0.075880289 0.9296428 0.36056405
17.676151 15.437217 -26.794046 0.06889683 0.94050038 0.33273444
28.57959 13.842572 -24.882315 0.080838233 0.93567246 0.3434855
73.436646 6.4708495 -19.845104 0.30795997 0.88838601 0.34048629
-44.657284 25.23772 -41.094212 0.065861285 0.92898095 0.36422074
-18.012619 20.347996 -33.920589 0.073377669 0.93148106 0.35631269
25.109327 14.10302 -24.785471 0.078592315 0.93677366 0.34099633
-76.240997 26.472334 -53.533543 -0.23396926 0.94932061 0.20987788
-48.451893 25.064167 -40.007835 0.082876183 0.9280234 0.363186
-15.359326 20.91604 -36.009121 0.070428602 0.93361747 0.35128096
-6.3983898 18.522499 -31.308361 0.046241302 0.94671458 0.31873685
16.223625 16.190975 -28.763468 0.059122659 0.94175243 0.33106932
21.233393 14.442937 -24.875896 0.071890712 0.94034541 0.33253914
-1.590633 17.726509 -29.813257 0.050052103 0.94505125 0.32306805
2.0983009 17.457712 -29.546347 0.05937089 0.93750256 0.34287623
-50.290573 26.03335 -41.510223 0.2469648 0.8678394 0.43111852
-3.7535689 18.747387 -32.596386 0.054305822 0.94006211 0.33665124
11.21955 15.998671 -27.3519 0.061267637 0.94101185 0.33278084
59.425625 8.3137712 -16.964893 -0.054366551 0.93495858 0.35056633
-65.702782 26.64456 -45.980522 -0.14228673 0.95393097 0.26414055
2.7466426 16.656216 -27.526461 0.072271474 0.94548559 0.3175436
22.955948 13.315789 -22.095039 0.076530538 0.93685865 0.34123126
30.010296 12.493344 -21.466654 0.072556995 0.93804497 0.33883199
61.4533 7.6272731 -13.959167 -0.34219378 0.88869488 0.30516353
63.311611 8.937439 -14.009041 -0.67692369 0.70666039 0.20592552
74.826172 4.1285377 -14.996979 0.30872807 0.8808049 0.35898414
-40.522472 23.368473 -37.05439 0.075407207 0.93068326 0.35796994
-7.8692536 17.56373 -28.174597 0.022901323 0.94090044 0.33790791
12.933368 15.119991 -25.118286 0.056396291 0.94299066 0.32800615
27.522003 13.06882 -22.501846 0.079159871 0.93673831 0.34096199
-78.12899 25.638962 -51.879765 -0.23944391 0.94719225 0.21329206
-44.033241 24.068382 -38.302845 0.068852074 0.93096185 0.35856581
1.9328113 16.167608 -25.562832 0.10087842 0.90300059 0.41762838
-87.24955 23.687235 -57.093468 -0.35852492 0.92085558 0.15324792
-72.691963 25.337399 -45.703407 -0.19401084 0.94785029 0.25286305
-33.927803 21.183464 -32.941818 0.071974941 0.93077439 0.35843909
-65.106308 25.163124 -40.685539 -0.15428424 0.94912493 0.27451456
63.541542 8.5059814 -10.331663 -0.39654386 0.87584811 0.27503285
-19.609196 18.924408 -29.760969 0.060900271 0.93517852 0.34890166
-15.46639 18.131876 -28.273861 0.08538036 0.93360078 0.34799391
-96.551544 20.095795 -72.247795 -0.56156415 0.82622933 -0.044618763
-60.182762 25.945749 -36.635738 -0.59118497 0.80479431 0.052976172
-41.166294 22.089558 -33.675468 0.085007854 0.92686266 0.3656491
2.4327879 15.031237 -22.604485 -0.03052634 0.94725692 0.3190181
23.638002 12.305244 -19.542408 0.077349365 0.93665731 0.34159952
25.947357 11.696012 -18.384319 0.075744145 0.93884444 0.33590767
30.960373 11.346658 -18.532125 0.078953885 0.93572658 0.3437764
-80.964508 24.731274 -51.438046 -0.28221768 0.93662429 0.20757689
-78.171089 24.93578 -48.857426 -0.23266958 0.94393289 0.23421277
-59.603157 26.417606 -33.548359 -0.48822922 0.86082143 0.1435919
-6.0951447 16.584658 -26.046497 0.050511021 0.9343034 0.352882
-3.880914 16.75775 -26.938992 0.036694605 0.93537211 0.35175636
-61.408012 24.6392 -34.126488 -0.62298876 0.77656311 0.093993545
-47.190052 23.071199 -35.04493 0.066382155 0.93219066 0.35582861
-16.44413 17.085648 -25.427731 0.075629652 0.9350974 0.34622678
5.296104 14.680673 -22.780506 0.059848711 0.92492306 0.37541366
-44.648876 22.579351 -34.140961 0.067295671 0.93186766 0.35650229
41.348549 8.5889912 -13.689099 0.089528725 0.93126214 0.35317895
61.664383 6.6168504 -10.26635 -0.50964475 0.83169675 0.22032399
-50.610458 22.846243 -33.787045 0.073153295 0.93167639 0.3558479
-38.258503 20.846405 -31.211874 0.079312794 0.92978483 0.35945743
-18.820665 18.183947 -27.914217 0.058002394 0.94076693 0.33405575
45.308514 8.2510281 -13.847732 0.090357162 0.93013525 0.35592696
58.52948 6.1002922 -11.011269 -0.060282242 0.93817395 0.34087488
-47.587265 21.934538 -32.025993 0.063327178 0.93049121 0.36079872
-43.521591 21.509811 -31.658693 0.076500349 0.92913222 0.36174712
-26.766733 18.282368 -26.643217 0.072467722 0.93306708 0.35232687
-20.092257 17.338646 -25.090462 0.05614445 0.93906808 0.33911484
28.841196 10.758022 -16.344515 0.078988627 0.93703145 0.34019548
-71.406532 24.554276 -41.969803 -0.16933447 0.9476127 0.27084294
-67.417297 23.685152 -36.894691 -0.17402293 0.94376147 0.28112331
-30.949648 19.570738 -29.279469 0.069962859 0.93245614 0.35444456
23.71933 11.031151 -15.973562 0.073583663 0.93839318 0.33764443
-51.056923 22.119225 -31.887245 0.076541752 0.92305815 0.37696829
31.544727 10.07555 -15.164036 0.089905046 0.93262422 0.34946972
-2.9600425 14.034072 -19.397032 0.029774092 0.93601048 0.35071048
3.0134847 13.633825 -18.863396 0.093016095 0.92838943 0.35977924
7.7549143 12.674449 -17.475626 0.068746679 0.89388102 0.44300184
18.258572 11.317039 -15.629224 0.061692476 0.93482023 0.34972167
24.946098 9.8863764 -13.116032 0.071864292 0.93517292 0.34682435
-54.766399 21.36904 -29.361143 0.16631863 0.9074685 0.38579673
-42.363552 20.394617 -29.026709 0.08053717 0.92801219 0.36374047
-50.693592 21.263668 -29.739399 0.060815327 0.92993444 0.36266154
-25.023546 16.987192 -23.636269 0.062177762 0.93933713 0.33731264
-19.946821 16.574404 -23.270664 0.060263216 0.94045126 0.33454412
61.883854 5.1558232 -1.0135573 -0.26794559 0.9331429 0.23968635
22.285652 10.162292 -13.31668 0.067780674 0.93412662 0.35044709
60.142262 5.035408 -7.2888055 -0.3626563 0.89831847 0.24800053
-79.933266 23.098848 -43.484875 -0.24830522 0.93687677 0.24618362
-41.727943 19.403854 -26.681538 0.072716989 0.93026191 0.35961792
3.9559743 12.593786 -16.590961 0.078940481 0.93423527 0.34781143
27.194016 9.4614954 -12.523216 0.083633251 0.93384749 0.34775606
-45.272369 19.880604 -27.167473 0.071489237 0.92834681 0.3647759
16.265135 11.467989 -15.810872 0.028925212 0.94544613 0.32449168
-66.597572 22.574493 -33.075253 -0.18998052 0.93146044 0.31030473
-85.947121 22.318043 -47.689823 -0.32024649 0.92412156 0.20842612
-61.586952 23.374037 -24.661654 -0.44779599 0.86085099 0.24169078
-48.389862 20.00075 -26.948469 0.062993884 0.93109238 0.359303
25.206724 8.8692331 -10.373417 0.074186355 0.93532974 0.34591123
-52.526108 20.334106 -27.049217 0.057093263 0.93096077 0.36062783
-45.148445 18.620123 -24.000036 0.073925704 0.93016386 0.35962513
0.97200161 11.922436 -14.813388 0.028747467 0.93159229 0.36236623
-50.693413 -43.565777 71.748741 -0.4367857 -0.40336505 0.80406153
-87.507019 20.961639 -44.270119 -0.32674962 0.91829169 0.22355087
-84.21582 21.875549 -43.627579 -0.28678891 0.92836553 0.23640977
-63.674503 21.583416 -26.341326 -0.57189256 0.79643303 0.1965535
18.705595 10.153312 -12.656859 0.06248799 0.93386811 0.35211572
59.101192 3.4231222 -2.4381754 -0.42511863 0.88267493 0.20039751
-70.680252 22.531378 -34.979565 -0.16387267 0.93933004 0.30133849
-27.428869 16.28297 -21.194717 0.056091331 0.93882918 0.33978453
-5.0158596 12.349133 -15.700836 0.047555823 0.93103886 0.36180803
10.657543 10.781171 -13.365008 0.069263585 0.92778802 0.36662227
14.974762 10.066674 -11.706775 0.047710504 0.93787503 0.34367743
17.317051 9.4126978 -10.435014 0.065550558 0.93303734 0.35375756
-32.392532 16.313211 -20.310537 0.062056564 0.93517542 0.3487061
4.1917439 11.612651 -14.053327 0.073334984 0.93376607 0.35028985
12.520937 10.560472 -12.960129 0.050624065 0.94394785 0.32618949
-66.196991 21.661728 -30.086466 -0.23493294 0.92749536 0.29078996
-48.914501 19.242609 -24.76195 0.06728752 0.93083119 0.35920152
-25.038984 14.853374 -17.314333 0.054910049 0.93722636 0.34437138
20.401438 8.9308519 -9.7647848 0.061011914 0.93495774 0.34947318
-55.277458 19.97554 -25.738316 0.19613427 0.91459638 0.35361665
-53.896347 18.925894 -23.217743 0.10638872 0.92703968 0.35955384
-27.802322 15.501206 -19.073275 0.047614682 0.94110906 0.33473372
-11.126595 12.74726 -14.707048 0.069160707 0.93457919 0.34896773
26.094589 7.7744551 -7.7310152 0.084858447 0.92963588 0.35857505
-49.792084 18.373415 -22.433855 0.060626775 0.93204403 0.35723701
-37.90633 17.690895 -22.93087 0.0687709 0.9309656 0.35857159
-20.869251 14.648295 -17.934898 0.090741746 0.93449688 0.34421149
22.424555 8.3447094 -8.432354 0.060703196 0.93230563 0.35654083
-90.53141 19.610157 -43.376076 -0.36070937 0.90596914 0.22160473
-6.2334843 11.890982 -14.08665 0.066235095 0.94272012 0.32694289
0.84766543 10.890033 -11.654795 0.013352656 0.94273573 0.33327311
12.039591 9.4517679 -9.6757154 0.051267084 0.93621796 0.34766039
13.922816 8.7734041 -8.0730028 0.062835276 0.93538433 0.34800556
-35.265713 15.952847 -18.96459 0.057900287 0.93479002 0.35045016
-31.988396 15.349734 -17.815903 0.059207287 0.93935269 0.33780318
-10.715634 11.846542 -12.482549 0.090622142 0.9290818 0.35860091
2.9747593 10.140028 -9.575531 0.027657403 0.92443967 0.38032401
17.96279 8.1974812 -7.397583 0.066774584 0.93157178 0.3573724
-86.625946 20.265583 -40.417175 -0.29547867 0.92187113 0.25069109
-22.874245 13.840838 -15.03836 0.078251958 0.93663317 0.34146008
-18.683903 13.65639 -15.641337 0.07907898 0.93520415 0.34516621
-16.508877 12.320169 -12.615762 0.070153497 0.93605655 0.34478471
24.323322 6.6230989 -4.2983527 0.076167837 0.93147624 0.35573944
-37.834301 16.538414 -19.997362 0.067828588 0.93136716 0.35770726
-29.021965 14.755764 -16.675707 0.054917458 0.93881148 0.34002516
55.546638 1.5598154 1.1943514 -0.053812843 0.94550431 0.32113177
-25.865931 14.01072 -15.282875 0.043862745 0.93925917 0.3403942
-69.857155 20.232424 -27.73023 -0.17506671 0.93165183 0.31839693
-67.968613 19.41567 -24.402927 -0.21364686 0.92587596 0.31162268
-46.908157 17.311256 -20.128912 0.073179066 0.93155944 0.35614848
10.278715 8.1838055 -5.9011383 0.046686172 0.9383719 0.34245965
26.646572 6.1403656 -3.5213239 0.094437055 0.92959404 0.35628182
31.139065 4.673933 -0.9742564 0.084422238 0.9260444 0.3678515
-75.355919 20.51923 -31.385521 -0.19433351 0.93351817 0.3012943
-53.645538 17.792561 -20.276436 0.068355165 0.93001932 0.36109775
-38.639572 15.281557 -16.562565 0.065466352 0.93438506 0.35019815
-13.873665 12.230916 -12.796705 0.068146653 0.93588048 0.34566426
20.231825 6.6265931 -3.5742664 0.060337294 0.93354821 0.35333717
-20.364569 12.705977 -12.763492 0.084547669 0.9334324 0.34864837
-15.823757 11.462632 -10.23619 0.076977879 0.93384212 0.34930411
5.0908184 9.1433868 -8.4722424 0.023859669 0.92337394 0.38315943
26.60537 5.3739109 -1.6439152 0.086735807 0.9267869 0.36543542
-10.568968 10.928085 -10.20908 0.072970457 0.9353357 0.34615365
5.4954281 8.8159781 -6.3366141 0.06215471 0.94017398 0.33497724
13.779831 7.8886147 -5.720222 0.067882702 0.92992806 0.3614217
-87.786926 18.640423 -35.9683 -0.2957437 0.91669178 0.26872262
-79.245361 19.319141 -30.458569 -0.22520275 0.92493421 0.30623591
-76.329605 19.278391 -28.255985 -0.1886774 0.92800689 0.3212539
-35.323265 15.207794 -16.888397 0.052015059 0.93705517 0.34528556
-33.375145 14.435055 -14.96276 0.050897866 0.93555802 0.3494862
-25.050436 13.398286 -13.287824 0.060217898 0.93537331 0.34849751
6.4601469 8.1981096 -6.1149368 0.096905015 0.91460603 0.3925623
-28.988775 13.92033 -14.388617 0.051801164 0.93701649 0.34542254
-14.012208 10.478017 -8.1640043 0.073436387 0.93237334 0.35395893
-6.5898681 10.278399 -8.9464102 0.064187132 0.94568932 0.31867176
53.340832 -0.24326134 6.2760096 -0.027773459 0.94751745 0.31849551
-25.880077 12.474576 -10.928981 0.053020973 0.93054163 0.36232725
55.210743 0.67168152 4.0936203 -0.29724696 0.93837851 0.17632371
-98.532242 16.072903 -44.10257 -0.4622384 0.86645806 0.1886429
-93.740013 17.313616 -39.484234 -0.38040105 0.89425433 0.2358053
-70.179947 17.512815 -20.240816 -0.19393161 0.91969949 0.34138453
-55.941006 16.80431 -17.408049 0.14122222 0.92324656 0.35731235
-39.584526 14.399484 -14.005719 0.061800741 0.93033087 0.36147633
-33.426865 13.556761 -12.785461 0.051138226 0.93125153 0.36077073
-2.9069228 9.344862 -6.9461527 0.064402506 0.93948042 0.33649489
11.385761 6.6697297 -2.2063656 0.064038843 0.93145126 0.35818633
64.261879 -2.1367676 6.522006 0.36601222 0.81234872 0.45400929
-62.789692 19.731888 -15.657978 -0.52562565 0.80239016 0.28264421
-37.113026 14.003262 -13.504694 0.050392855 0.93265939 0.35722128
-20.724134 10.723042 -7.3592458 0.070181109 0.93202078 0.35554457
8.3508768 6.3406801 -0.77347684 0.065437995 0.93111414 0.35880941
20.256287 5.3360133 -0.25815317 0.061562426 0.93189389 0.35746858
-29.784327 12.738634 -11.194099 0.042721309 0.93404931 0.35457981
-30.909039 12.074551 -9.2906733 0.048640255 0.94489884 0.32372868
-18.029821 10.637037 -7.671679 0.076394416 0.92883587 0.36252984
-64.523735 18.660524 -18.478575 -0.64315134 0.7248522 0.24687198
-62.848278 18.461876 -12.404812 -0.5189606 0.78749478 0.33246326
-35.256603 12.790663 -10.47768 0.053603977 0.9355042 0.34922564
-13.611202 9.1056461 -4.6057549 0.057975508 0.93286663 0.35552606
1.9195366 7.4004502 -2.3237529 0.06099271 0.93722415 0.34335253
-31.555918 11.698829 -7.7548175 0.044117503 0.93909937 0.34080216
-6.203115 7.7967639 -2.32833 0.054050755 0.93400306 0.3531526
-1.1806105 8.4496021 -4.8086152 0.054824948 0.94024163 0.33606505
20.29203 4.3310142 2.4068799 0.070505671 0.92628336 0.37017298
63.003719 -3.6329408 10.120607 0.3157801 0.83324635 0.45385396
-66.811462 17.434826 -18.145647 -0.28240401 0.8970902 0.33981931
-43.285225 14.192281 -12.959222 0.065597139 0.92958897 0.36271396
-39.64415 13.420896 -11.545478 0.054816674 0.93436229 0.3520827
-22.982885 10.284585 -5.7700768 0.069682568 0.93212181 0.35537761
-10.931058 9.3883715 -5.7691722 0.057900608 0.93492043 0.35010192
-7.850059 8.8818359 -4.8974504 0.055016868 0.93568802 0.34851259
-1.766884 7.0380068 -0.9677949 0.04691733 0.93266088 0.35769054
5.515831 6.774251 -1.3341613 0.062866896 0.93377364 0.35229903
-20.582525 9.5565262 -4.3466468 0.078007139 0.92924118 0.36114505
20.588593 3.4501431 4.3885851 0.07560809 0.92266124 0.37812659
-42.327271 12.96274 -9.9035997 0.058282673 0.93357182 0.35361958
-27.368868 10.469119 -5.4669948 0.066696554 0.93256241 0.35479423
-79.235313 17.753698 -25.776722 -0.21978648 0.9194243 0.32611799
-10.607903 7.9854236 -2.1618669 0.056356311 0.93428195 0.35205272
14.929212 4.1885886 3.6490903 0.062115803 0.9288373 0.36524332
-77.760803 16.673792 -21.920065 -0.21107776 0.91645503 0.33993563
-39.084549 12.280466 -8.4916496 0.050822038 0.93448508 0.35235596
-0.093128294 6.4109659 0.38996693 0.045141213 0.93141139 0.36115798
-83.420364 15.481269 -22.412632 -0.23948102 0.91329372 0.32945934
-46.5172 13.57495 -10.666495 0.069143601 0.93092918 0.35859445
-36.53043 11.826202 -7.7012506 0.044698223 0.9376092 0.34480578
-27.862875 11.549943 -8.1292877 0.06160054 0.93417066 0.35146928
-14.187789 8.2809105 -2.3570328 0.056833062 0.93438131 0.3517122
-4.8604956 6.9501157 -0.29724008 0.057969432 0.92918152 0.36504966
8.2797813 4.8245206 3.0992079 0.060510125 0.92818737 0.36716044
21.150021 2.2859881 7.1842079 0.077631377 0.92356503 0.37550104
52.004387 -1.5583819 10.526247 -0.17851882 0.96057856 0.21311925
3.5317252 5.2297015 2.8991113 0.064399786 0.92530358 0.37371907
16.700109 3.5368292 4.9699583 0.06965702 0.92439133 0.37503135
-94.040657 14.555811 -30.517401 -0.37990397 0.88462806 0.27038169
-77.620422 15.335378 -18.24608 -0.2032129 0.91666949 0.34412444
-44.636776 12.504188 -8.309763 0.069310643 0.93174732 0.35643095
-31.718252 10.737576 -5.4021764 0.046843573 0.92811573 0.36933318
-25.381731 9.8969765 -4.201118 0.065309651 0.93252355 0.35515428
-8.242836 6.6090488 1.1524292 0.060586669 0.93163282 0.35831493
2.531179 6.1347165 0.84815955 0.054427721 0.92923582 0.36545643
-70.488869 14.787101 -13.357329 -0.16133426 0.91496134 0.36988792
-42.549431 11.64356 -6.3747144 0.05856856 0.93409234 0.35219496
-39.611378 11.403497 -6.2290368 0.05446827 0.93188995 0.35862851
-36.082939 10.881152 -5.3304176 0.039964564 0.9298104 0.36586261
-27.924356 9.6827135 -3.2810597 0.059699975 0.93106866 0.35992649
-17.469561 8.4771109 -2.3746321 0.070219688 0.93272656 0.35368118
16.944023 2.6304786 7.2045493 0.070721723 0.92493194 0.37349597
-49.151749 12.874935 -8.3244371 0.065441296 0.93109953 0.35884693
-26.31949 8.7782507 -1.2202768 0.065952383 0.93186021 0.35677272
-3.7606192 5.3596926 3.6587715 0.048626062 0.93230903 0.3583788
6.298872 3.7203534 6.1536565 0.054855578 0.92812818 0.3681969
10.291395 4.3010163 4.1711125 0.056945462 0.9285174 0.36689588
49.928421 -2.723242 14.730824 -0.2753585 0.95659304 0.095433936
-47.349586 12.049978 -6.5428963 0.062133912 0.93132281 0.35885561
-14.06417 7.458014 -0.10747469 0.060264081 0.93486911 0.34983993
-0.43517956 5.0609741 3.9722216 0.052936975 0.92862457 0.36722481
13.957988 2.8797259 7.1057973 0.062102664 0.92546982 0.37369627
-34.709934 10.087165 -3.4698927 0.040742218 0.92917848 0.36737907
-30.627111 10.015668 -3.6435747 0.048868708 0.9299168 0.36450878
16.979002 1.5952724 9.7414627 0.072652183 0.92464441 0.37383756
-96.490349 13.210502 -29.521978 -0.3933171 0.877509 0.27437121
-23.432985 8.2193489 -0.27986696 0.07962995 0.9285239 0.36263251
-94.598305 13.488807 -27.868084 -0.38132307 0.87632173 0.29436889
-5.9318218 6.1343093 1.8601286 0.056604303 0.93049955 0.36189294
-67.837502 13.876796 -10.066465 -0.22420722 0.89986551 0.37412989
-51.617809 12.320294 -6.5247412 0.069592439 0.92689836 0.36880377
-11.323642 5.6493831 4.1087646 0.062593825 0.93057948 0.36069894
0.39311343 4.242744 5.8428741 0.061530728 0.92424917 0.37679896
4.0875392 4.1322351 5.4977221 0.061266851 0.92569494 0.37327635
18.32062 0.52319932 12.120197 0.07082957 0.92495072 0.37342915
46.458988 -3.1431477 14.889399 0.036502048 0.93827599 0.34395617
-79.292206 14.197816 -16.323137 -0.21152711 0.90925735 0.35847917
-38.987625 10.299449 -3.4119358 0.055918876 0.93043154 0.36217442
-35.103157 9.3207502 -1.5167422 0.045145191 0.93013781 0.36442477
-29.515924 8.5488081 -0.10531156 0.044946853 0.92960227 0.36581314
-21.742922 7.2898273 1.5656626 0.072369918 0.92654926 0.36914632
-17.969561 6.8880916 2.0999751 0.056912307 0.93264896 0.35626796
-7.2494025 4.9354563 5.264811 0.057017993 0.93258536 0.35641742
21.294678 1.3125376 9.5029745 0.068451896 0.92836839 0.3653034
66.956635 -8.0165434 15.886993 0.29203606 0.83493602 0.46647274
-3.6891735 4.2520509 6.4662275 0.060601112 0.92758375 0.36866763
9.2728519 2.9270964 7.7379642 0.059348784 0.92705333 0.37020233
10.096033 1.8930149 10.119281 0.069608852 0.92735004 0.36766347
-43.250767 10.882886 -4.1840973 0.061167523 0.93185264 0.35764381
21.649395 0.48911273 11.717192 0.068452947 0.92689067 0.36903638
45.942715 -3.8608685 17.041431 -0.11620253 0.9699893 0.21358292
-61.106689 14.995644 -3.1780143 0.18195102 0.92362463 0.3373594
-46.582203 10.893909 -3.6485515 0.058841884 0.9300158 0.3627784
-25.652489 7.6310682 1.7689674 0.066417694 0.92444766 0.37547991
12.949479 1.8000501 9.8846025 0.062376004 0.92652959 0.37101492
-73.745804 13.79354 -12.276361 -0.17319298 0.91327339 0.3686949
-15.511189 6.3473196 3.0396345 0.061883274 0.92996854 0.36239338
7.9935489 1.44713 11.71306 0.060903583 0.9279595 0.36767095
-86.441566 12.616354 -17.037674 -0.27201077 0.89426839 0.35537887
-82.133591 12.399561 -13.431572 -0.23815095 0.90229791 0.35936436
-21.303827 6.1449533 4.4853148 0.059171885 0.93103784 0.36009338
-16.602766 5.0744386 6.4901843 0.058330748 0.93128073 0.35960206
-12.56968 4.8538494 6.413938 0.062771745 0.93159455 0.35803795
-1.195839 3.3364453 8.3262987 0.059706111 0.92812902 0.36743939
12.045485 0.58629918 13.131225 0.067467168 0.92734689 0.36807069
18.706434 -0.53075814 14.669754 0.072969727 0.92402369 0.37530741
-6.2769847 3.5946879 8.6325788 0.061052244 0.92951536 0.36369473
14.724035 0.7712574 12.224337 0.067012496 0.92600703 0.37151089
66.526619 -9.9286423 19.537735 0.2971372 0.82389855 0.4825978
78.15258 -14.24517 18.67185 0.38427597 0.77701086 0.49858406
-68.856644 12.423075 -6.9834909 -0.18983133 0.90572864 0.37897184
-10.001 4.3148012 7.3092866 0.061536439 0.93149656 0.35850704
-19.889112 4.9955955 7.2433696 0.059869587 0.93015313 0.3622579
-69.281967 11.30254 -4.6248693 -0.18723089 0.89444625 0.40609169
