# .PCD v0.7 - Point Cloud Data file format
VERSION 0.7
FIELDS x y z normal_x normal_y normal_z
SIZE 4 4 4 4 4 4
TYPE F F F F F F
COUNT 1 1 1 1 1 1
WIDTH 733
HEIGHT 1
VIEWPOINT 0 0 0 1 0 0 0
POINTS 733
DATA ascii
-12.980899 12.089853 42.0919 0.026052127 0.95425409 0.29785964
-107.64564 -26.692974 7.7942877 -0.82527423 0.2999503 0.47848964
-0.09393803 42.765572 -65.786263 0.11610059 0.98266864 0.14450987
20.478453 40.091099 -60.056881 -0.12433235 0.6926707 0.71045673
15.913474 40.32999 -62.220097 -0.29756999 0.46498013 0.83381391
19.223112 38.916836 -61.191811 -0.30214646 0.35997066 0.88268262
17.757355 40.577274 -61.519409 -0.26254103 0.42337093 0.86708081
3.3789451 40.051155 -63.941948 -0.00067079061 0.61801809 0.78616357
10.387426 39.969326 -63.426498 -0.11246212 0.43391833 0.89390552
-4.7289515 40.618443 -64.166161 0.093368366 0.43119991 0.89741242
14.164536 39.764481 -62.764889 -0.18256854 0.47165102 0.86267841
31.938164 36.08902 -54.341759 -0.46305451 0.47511899 0.74822623
8.7637281 38.905697 -62.61792 -0.056065667 0.66596907 0.74386948
28.565536 36.730827 -56.314667 -0.33030453 0.53730881 0.77601427
-0.43372038 40.858734 -64.475784 0.0568504 0.59093624 0.80471259
11.247687 38.184711 -61.857178 -0.07328786 0.73727494 0.67160594
34.916668 36.996975 -52.428341 -0.34774557 0.67733425 0.6482988
-14.402993 41.581978 -62.895329 0.26633573 0.2701515 0.92524779
-6.9437494 39.861717 -63.125916 0.10866381 0.64545333 0.75603056
-0.018934 38.648399 -62.566555 0.044649482 0.73707569 0.67433351
-16.393766 42.598473 -62.449631 0.18243933 0.50325739 0.84465843
-12.579626 40.662373 -62.982246 0.17553884 0.63171875 0.75506127
-5.3690476 38.635788 -62.151039 0.04799246 0.74706006 0.66302174
1.8780903 38.094536 -61.786221 0.013295243 0.77346337 0.63370156
-9.5941315 40.357452 -63.329617 0.093641073 0.50520515 0.8579039
-21.609173 42.202171 -60.482559 0.2455641 0.64138097 0.72686231
-16.80789 40.72366 -61.952461 0.20010301 0.57823616 0.79094988
-4.0011897 37.490639 -60.75584 0.06060661 0.84376764 0.53327566
2.6355214 37.099125 -60.449959 0.026804788 0.87744415 0.47892931
30.539394 35.263817 -53.90564 -0.18705654 0.80609262 0.56144857
-7.4626341 37.573917 -60.298912 0.079384841 0.84775501 0.52441347
28.428492 33.294453 -51.453659 -0.10980105 0.87754923 0.46674508
32.357292 33.352928 -50.715282 -0.20072414 0.82823062 0.5232054
-9.7138166 39.071812 -62.006657 0.10268075 0.7586844 0.64331543
-23.484594 42.627632 -61.235176 -0.062300153 0.97742999 0.20186478
40.841194 32.014194 -44.261356 -0.40900174 0.69661146 0.58944899
38.524216 33.265533 -47.34053 -0.40917253 0.69487977 0.59137118
-11.058345 37.392395 -59.512169 0.086150311 0.87188125 0.48208013
-2.2360213 36.791737 -59.496578 0.050132468 0.93339533 0.35533056
43.204453 32.221016 -42.907181 -0.46983591 0.66761291 0.57753551
-5.9942355 32.859615 -43.772747 0.046253908 0.96987909 0.23915504
-23.593046 39.336975 -58.503208 0.29256776 0.61806035 0.72966117
-17.810303 38.264935 -59.309975 0.14565738 0.79322648 0.59124923
-14.771162 37.888287 -59.52475 0.14638583 0.78821564 0.59773511
-23.883751 41.200443 -59.210941 0.31835863 0.4391911 0.84009457
47.459366 32.287998 -37.88443 -0.46243107 0.71780664 0.52049124
48.28508 31.587557 -36.137566 -0.50491792 0.72930253 0.46170965
-34.270473 41.425079 -55.684666 -0.037928376 0.98012257 0.19473338
-27.001104 40.496407 -57.724075 0.37557212 0.45449263 0.80770171
-14.379878 36.520668 -56.719955 0.069846705 0.92505217 0.37336302
37.859821 31.213392 -44.776836 -0.19341733 0.86238939 0.46784005
-23.311626 37.566566 -56.605221 0.18370946 0.83410895 0.52010882
46.696857 30.934677 -37.966824 -0.54997522 0.66306579 0.50781012
-29.727503 41.301044 -56.580116 0.35762718 0.66046685 0.66021687
44.278431 30.031771 -38.686375 -0.35186961 0.81123656 0.46699354
-26.883358 37.706421 -55.285583 0.23590742 0.77319872 0.58865225
39.733589 29.148338 -39.212322 -0.067854762 0.93971646 0.33515471
41.55806 30.259401 -40.876339 -0.26773641 0.85438681 0.44535428
-32.760963 40.739956 -54.446068 0.31298813 0.69714576 0.64500099
-31.880543 38.451828 -53.418869 0.41014424 0.58460701 0.70001167
42.42469 28.455925 -36.60878 -0.1572894 0.91339409 0.37546143
47.721096 30.106098 -35.66795 -0.56881809 0.65436041 0.49825543
49.156631 29.683426 -33.161346 -0.69468653 0.54095984 0.47410232
51.302544 29.279667 -29.210987 -0.56440401 0.7240029 0.39657018
-22.600655 35.857742 -53.349113 0.088315882 0.93058187 0.35527116
-34.300571 39.065937 -52.756638 0.45320815 0.51701552 0.72615242
6.4157724 32.552811 -44.942863 0.051779717 0.96719432 0.24870495
45.733757 28.709501 -35.091137 -0.31767741 0.84555364 0.42909217
49.799274 28.413284 -30.562841 -0.5985285 0.68901461 0.40868396
-35.368614 37.7836 -50.713669 0.43353847 0.60646832 0.66651368
-22.111107 34.894501 -50.148964 0.028625052 0.96579176 0.25773406
47.767338 27.222864 -30.345417 -0.3275865 0.8668561 0.37582922
-37.060093 39.886753 -51.207851 0.24203032 0.83097363 0.50090343
47.740631 28.690685 -33.577816 -0.3974953 0.81245339 0.42651725
-39.529537 39.429878 -48.990307 0.35953203 0.73607177 0.57352859
-10.683735 33.980503 -47.233757 0.035484072 0.97123641 0.23545884
4.2295866 31.972731 -42.346066 0.046137869 0.96824628 0.24570407
21.959906 29.977636 -38.400589 0.054260578 0.96665585 0.25026459
-13.975549 33.817074 -46.234005 0.013079854 0.9713822 0.23716187
49.433228 26.545092 -27.216782 -0.43399736 0.82272464 0.36711115
53.467049 28.218939 -23.706244 -0.16227245 0.93877 0.30393842
51.243786 26.109402 -23.910133 -0.51936001 0.7706061 0.36936635
-34.858799 36.316177 -49.26252 0.33481991 0.76488447 0.55031586
-9.8612165 33.157352 -44.263832 0.042741455 0.96791232 0.24762657
42.257767 26.580885 -31.196913 -0.0053878645 0.9510473 0.30899855
45.318638 26.755451 -30.919138 -0.18064116 0.91645879 0.35703221
-39.784973 37.63792 -48.017132 0.45416245 0.6089282 0.65034056
-17.725986 33.68642 -45.875237 0.016907914 0.97108573 0.23813157
45.940735 25.514946 -27.389751 -0.15976031 0.93041986 0.32984173
-16.423613 32.899189 -42.425922 0.016233534 0.96983945 0.2432036
-3.4649379 31.989204 -40.586258 0.048912898 0.97089446 0.23445983
29.88196 28.231695 -33.827 0.07526926 0.96240479 0.26098198
-27.039705 34.823868 -49.28524 0.056283072 0.95553106 0.28946963
-24.649017 34.265934 -47.679226 0.024901982 0.97108179 0.2374451
-37.889938 35.420731 -46.217178 0.2785874 0.817352 0.50430632
49.335335 24.985245 -23.428753 -0.30395588 0.89148802 0.33594623
52.665031 26.186876 -21.91271 -0.61239749 0.71171361 0.34414122
-33.067654 35.323135 -48.612633 0.19528502 0.88748443 0.41741478
-11.076879 32.162247 -40.187244 0.032937158 0.97016084 0.24021444
54.163548 26.161266 -17.888281 -0.40676922 0.87172306 0.27319914
-23.155729 33.873951 -45.807686 0.020121563 0.9698782 0.24275807
3.1828985 30.660563 -37.03632 0.053581081 0.96959746 0.23876716
50.563618 24.136915 -19.666658 -0.37889838 0.8711282 0.31236467
-7.4970856 31.521515 -37.929836 0.037666958 0.9727298 0.22886221
-22.671225 32.89827 -42.329956 0.01998328 0.96749556 0.25209704
-25.225986 32.498726 -40.270382 0.023547068 0.96682674 0.25434569
5.2276583 29.427589 -32.22337 0.048186716 0.96909404 0.24193962
9.2511272 29.711338 -34.15847 0.068574607 0.96772444 0.24250133
8.9978685 29.027473 -31.37166 0.064226076 0.96605664 0.25021905
52.987507 25.30217 -19.144323 -0.60021967 0.74830741 0.28243986
-17.86817 31.464617 -36.874569 0.0099522276 0.96728253 0.25350648
-6.0909405 30.413267 -33.509392 0.053730961 0.96711755 0.24858947
-62.074841 -43.645718 65.082848 -0.44392499 0.34073898 0.82875055
51.750843 23.475758 -16.312904 -0.46361384 0.83856291 0.28613704
-9.3467779 31.026537 -35.456009 0.022457341 0.97086239 0.23858313
47.504494 23.708948 -21.193958 -0.18291235 0.93674469 0.29841644
53.596264 24.200199 -14.923244 -0.68150395 0.68802881 0.24933651
54.532471 24.747009 -12.217907 -0.44385356 0.86041832 0.25034839
-11.304745 29.883286 -30.869061 0.024553061 0.96813136 0.24923649
48.624847 22.691515 -17.272516 -0.20439199 0.93377084 0.29376173
-28.140244 31.756956 -37.354572 0.012845759 0.96440983 0.26409966
-22.346584 31.8085 -38.093357 0.013266436 0.96673846 0.25542286
-25.40341 30.912178 -34.503902 0.0092750685 0.96577811 0.25920391
41.795868 22.620564 -17.172411 0.071416922 0.96150225 0.26535448
-19.957226 30.756237 -34.006435 0.0056318617 0.96861279 0.24851052
-7.9217596 29.446901 -29.655712 0.05676071 0.96464914 0.25735226
-0.97452116 29.135706 -29.848972 0.039892245 0.96637428 0.25402606
53.162308 23.081947 -12.127748 -0.57497835 0.79445374 0.19555862
-14.086397 30.451818 -32.95882 0.0071030851 0.96890843 0.24731773
-31.090281 30.961428 -34.548012 0.010377667 0.96343267 0.26774955
50.56321 22.114143 -13.640862 -0.33681092 0.90683913 0.25337967
-17.480833 29.830967 -30.554176 0.0037086604 0.9679848 0.25098139
-35.603527 31.784018 -37.117371 0.021457197 0.96151209 0.27392349
54.246098 23.506695 -9.033185 -0.48078439 0.85297209 0.20318709
-25.500847 30.095894 -31.433453 0.0021636321 0.9679572 0.25110605
-12.689068 28.898577 -26.887724 0.014218607 0.96628612 0.25707787
54.053726 22.468933 -4.7484756 -0.52603823 0.83669114 0.1524194
51.748394 21.220449 -7.8445492 -0.50922334 0.84158176 0.18008846
-20.932417 30.004093 -31.032701 0.005777753 0.9680081 0.25085244
-58.514988 32.065971 -36.795361 -0.32017627 0.94156367 0.10461812
-42.523636 30.718885 -32.478901 0.092221834 0.94798809 0.30465353
-29.270891 30.272655 -31.995338 0.003762122 0.96643817 0.25687167
-6.2871728 27.686995 -23.468531 0.051546078 0.9652788 0.25608554
49.786484 20.963831 -10.183359 -0.21940666 0.94396883 0.24654305
55.567471 22.701183 -4.470511 0.1797037 0.94204009 0.28331482
-64.319649 31.37262 -44.00613 -0.32372892 0.94309789 0.075934075
22.312445 23.412998 -14.069854 0.0634716 0.96046722 0.27106085
-61.219784 32.184475 -42.725937 -0.27414864 0.95649046 0.099842459
49.240082 19.936792 -6.6622181 -0.2941286 0.93077672 0.21712448
-37.890251 30.44582 -32.19054 0.021918019 0.96215868 0.27160683
-23.324162 29.052279 -27.353104 0.001274048 0.96555942 0.26017967
-41.146721 29.956049 -30.445578 0.032821044 0.96090555 0.27492407
-27.464996 27.947374 -23.254787 0.010047174 0.96520704 0.26129377
-24.808432 28.312805 -24.800833 0.0058518196 0.96372241 0.26684272
-66.781181 30.429882 -44.643818 -0.38652658 0.92045581 0.057950933
-57.441624 32.336048 -33.59631 -0.52198607 0.85295099 0.0022651628
-33.67128 29.700037 -29.80386 0.013267113 0.96434283 0.26432353
-13.501366 27.532644 -22.013083 0.014312765 0.96248132 0.27097023
-37.596455 29.380909 -28.390667 0.016633995 0.96429521 0.26430678
51.449745 20.108263 -3.1424067 -0.52773434 0.838808 0.13378198
-69.087837 29.345596 -45.889297 -0.46295348 0.88628328 0.013267419
-48.114742 -46.720345 72.294762 -0.34465048 0.28476804 0.89449608
-42.972828 29.429743 -28.032412 0.042431112 0.96024674 0.27590925
-56.764538 32.876564 -23.854233 -0.33054495 0.92793894 0.17224805
-35.321255 28.506281 -25.343288 0.0055627031 0.96408999 0.26551765
51.800037 20.066088 0.15047763 -0.55052638 0.83301413 0.054848038
-24.879135 27.376732 -21.383804 -0.00073308992 0.96591461 0.25885999
47.810841 18.862467 -3.6553404 -0.18893652 0.95555067 0.22633159
49.446712 18.743174 -0.65129232 -0.38975599 0.90951556 0.14447078
52.962521 20.961927 0.94022846 -0.35843077 0.92054218 0.15533687
-60.35014 30.835089 -31.845306 -0.34675077 0.92914826 0.12824734
30.081581 19.685036 -3.3419499 0.074290551 0.95381677 0.29105756
47.561993 18.016773 0.026398338 -0.25231227 0.95337099 0.16559656
-56.903442 31.936007 -20.394201 -0.082104906 0.95207894 0.294626
-54.989273 32.361897 -22.399233 0.45651877 0.82554919 0.33175167
-58.330833 31.549349 -20.704708 -0.5840767 0.80143321 0.12868199
-61.284435 29.711773 -26.963106 -0.38651577 0.9127205 0.13246457
-23.083204 25.658442 -15.139289 -0.0065082842 0.9581545 0.28617761
33.178402 18.148827 0.97144997 0.078196391 0.95293885 0.29290426
44.826542 17.662363 -0.35884559 -0.054582134 0.96901369 0.24090095
49.49057 18.424715 2.7619364 -0.47136095 0.87813598 0.081829481
50.003731 18.525736 5.579052 -0.57436842 0.81838644 0.018560119
-35.020527 27.078451 -20.143641 -0.00082158647 0.9634338 0.26794517
-56.751354 -45.121155 68.186958 -0.41331527 0.24007098 0.87837148
-52.430222 -43.623379 69.227097 -0.34797832 0.36012849 0.86557412
40.548424 17.253557 1.8231739 0.063072577 0.95688772 0.28352737
-31.488207 26.22298 -17.16349 0.0021561841 0.96179068 0.27377728
46.91922 17.125029 4.3794661 -0.2674374 0.95190448 0.14951582
-42.856686 26.579166 -18.050844 0.021304743 0.96189535 0.27258664
10.661012 20.507238 -1.1682309 0.053013638 0.95721018 0.28449634
19.046743 19.675896 -0.31766707 0.062586315 0.95510429 0.28958368
-30.746143 25.17403 -13.419127 0.0012113387 0.96064788 0.27776629
36.641052 17.349691 2.4921293 0.080566026 0.95321125 0.29137176
47.790443 17.200075 6.7576184 -0.46051231 0.88743174 0.019833155
48.516682 17.705387 11.831476 -0.41972005 0.90733445 0.024069672
-62.69175 27.949162 -21.06415 -0.39155373 0.89961028 0.19335718
-39.799385 26.87565 -19.347263 0.012950989 0.96270925 0.27022806
-34.376556 25.696711 -15.20085 0.00221056 0.96176362 0.27387202
44.222244 15.925138 7.4981885 -0.17363265 0.97034472 0.16817464
-2.595962 21.891375 -4.2091894 0.035781641 0.96315551 0.26655412
7.0663691 20.607399 -1.0009912 0.040603094 0.9565776 0.288636
-28.08135 24.88179 -12.42571 0.0034879504 0.96035099 0.27877209
3.2740672 21.15097 -2.3469002 0.038587689 0.95719266 0.28686789
19.404264 18.703278 2.628401 0.065504514 0.9503783 0.30412233
-66.856895 26.959843 -22.659412 -0.29980236 0.92978883 0.21356784
-9.1849861 22.915501 -6.2201424 0.025591342 0.9630264 0.26818883
0.58680803 21.642775 -3.408164 0.061428297 0.95830035 0.27908221
44.792625 15.822703 10.346284 -0.36616313 0.92972952 0.039084468
-28.560534 24.055843 -9.6288576 0.0021911813 0.95688015 0.29047492
9.4525661 19.960705 0.70536977 0.054217894 0.94985914 0.30794156
-71.604088 26.570845 -29.553341 -0.40697017 0.9002502 0.15467697
-33.857544 23.877323 -8.9966669 0.0045345835 0.95894182 0.28356662
-1.8494234 20.460455 0.64402878 0.067409046 0.94415838 0.32252291
4.6386571 19.98176 1.4872675 0.039125316 0.95280254 0.30105928
43.995209 15.474346 13.880154 -0.41415423 0.9098404 -0.025819574
-42.598282 25.636383 -14.79985 0.01886652 0.96065575 0.27710027
-13.70752 22.165083 -3.4144557 0.01210701 0.95612699 0.29270232
8.0876207 19.198771 3.1936646 0.052487914 0.94995582 0.30794302
-37.584785 24.244251 -10.266664 0.0064004916 0.96129137 0.27545956
-9.9965563 21.973959 -2.9891732 0.024532484 0.95407581 0.2985591
-8.2549162 21.254755 -0.95344919 0.042181175 0.95446718 0.29531854
14.054272 18.935425 3.0546579 0.058410112 0.94948459 0.30832997
44.39349 15.827682 16.923969 -0.42230818 0.90393257 -0.067540199
-44.779018 24.616875 -11.076927 0.039414577 0.95760697 0.28536871
-29.052132 23.321308 -7.3502111 0.0034636268 0.95819706 0.28608799
-19.217323 22.956644 -6.0157967 0.00081365224 0.95788157 0.28716248
46.610256 16.926706 17.028378 -0.10424682 0.97797644 0.18081716
-74.751617 24.70697 -27.500683 -0.46532109 0.87012607 0.16234845
-4.7213569 21.21892 -1.4010625 0.015328733 0.9600606 0.27937192
41.671883 14.935908 10.94923 -0.14282638 0.97627968 0.16272277
-16.189466 21.556421 -1.4383078 0.0042674383 0.95783955 0.2872721
-4.2457509 20.528219 0.67179811 0.02362683 0.94713414 0.31996691
-45.644451 -48.378429 73.567017 -0.35259172 0.086159378 0.93180233
-59.184593 27.871729 -7.7987032 -0.49338949 0.82354718 0.27988723
-43.733932 -48.152245 74.256599 -0.36428553 -0.040878247 0.9303897
-56.307262 28.52001 -9.1905365 0.32579586 0.90957046 0.25795102
-25.457302 22.319021 -3.8492739 0.0013892008 0.95823854 0.28596658
-12.15983 21.263536 -0.69668245 0.021783385 0.95593178 0.29277954
24.88788 16.604282 7.9297843 0.073244303 0.95449418 0.28909534
42.531059 14.857032 14.132427 -0.33040422 0.9434725 0.026316673
41.115662 14.308551 16.657244 -0.31252906 0.94987744 0.0076482799
-40.152931 23.253929 -6.6569901 0.0038048264 0.96057731 0.277987
-13.777711 20.735615 1.3823265 0.016903682 0.95752448 0.28785631
43.638676 15.879626 21.076012 -0.08626765 0.98040485 0.17709929
-62.773617 24.821068 -9.482111 -0.44771111 0.85204899 0.27123269
16.248226 17.194202 8.0709019 0.054089494 0.95507693 0.29138023
24.811817 15.6942 11.198247 0.068259917 0.95461667 0.28990963
38.49712 13.911999 14.222898 -0.10389142 0.98068571 0.16571686
-60.051762 26.249311 -7.6204147 -0.68174136 0.68316227 0.26175976
-36.138729 22.519539 -4.4345112 0.011231621 0.95776659 0.28732744
-31.682583 22.098083 -3.1196289 0.0033050291 0.95745355 0.28856856
-22.150425 20.779076 1.2313482 0.00046266199 0.95707881 0.28982744
34.267876 14.124393 13.643921 0.057332274 0.95808715 0.28068137
-70.51088 24.208076 -16.586689 -0.36455688 0.89853847 0.24439064
-40.440479 22.532185 -4.1901288 0.008242147 0.95784062 0.28718188
-17.999737 20.020523 3.7807469 0.0014165172 0.95428604 0.29889151
-9.9720192 20.374346 2.0878842 0.034031067 0.95324129 0.30028814
37.454887 13.368313 17.450384 -0.19531336 0.97748828 0.07980822
39.677048 13.870088 19.941219 -0.34150597 0.93844277 -0.051949624
37.05732 13.228114 20.688444 -0.25335458 0.96663976 0.037669893
-13.585249 18.942888 7.0680432 0.024477169 0.95125449 0.30743393
2.8956885 17.329828 9.9747896 0.055160679 0.94949162 0.30890608
-59.176018 24.643625 -1.672806 -0.68637067 0.65585798 0.31423816
34.739128 12.506234 21.728071 -0.17424202 0.98263162 0.06383308
-58.228058 26.139286 -1.7218333 -0.37595072 0.86891133 0.32195351
-17.292702 19.061329 6.7722206 0.0055329441 0.95193183 0.30626005
33.073975 12.59672 19.521019 -0.019599585 0.97855628 0.20504497
-66.489761 24.478899 -12.672135 -0.31692749 0.90909433 0.27037832
-31.320492 21.024651 0.44640678 0.0037336908 0.95858085 0.28479612
-26.929167 20.660185 1.7301686 0.0036071474 0.95712024 0.28966838
-1.6885427 17.279501 11.030464 0.046984497 0.94966054 0.3097375
-15.966304 18.305004 8.8804903 0.007311719 0.95027769 0.31131795
16.410097 15.048503 14.780109 0.055586372 0.95079076 0.30480665
-24.040649 19.516649 5.2662883 0.0026523957 0.95475936 0.29736793
36.636436 14.012529 29.000505 0.081738971 0.94183415 0.32598644
-56.929451 25.314753 1.9903524 -0.23307326 0.91762143 0.3219437
-14.80677 17.672413 10.95341 0.020581733 0.95085794 0.30894247
19.43318 13.730929 18.378578 0.059036322 0.94933212 0.30867976
-21.621984 18.5623 8.3815422 0.0044375975 0.95490992 0.29686245
-0.82239074 15.757079 15.519737 0.051260151 0.94898403 0.31112981
-64.077736 23.188276 -5.9809113 -0.3373726 0.89182454 0.30137819
-30.461212 19.751204 4.7075081 0.0082345121 0.95719957 0.28931183
4.1952772 14.991479 16.862829 0.059559438 0.94989407 0.30684489
8.3184862 14.017314 19.131565 0.045064494 0.95250875 0.30115819
-72.318726 21.204081 -9.0058661 -0.38668159 0.87896776 0.27909333
-36.361599 19.878878 4.426713 0.0087777907 0.95937788 0.28198761
-55.881546 23.996469 6.1550026 -0.2360144 0.90560275 0.35239309
33.1478 13.327993 31.383379 -0.050016854 0.98654234 0.15566808
34.930912 12.356309 32.663651 0.35891324 0.66071844 0.65926647
-68.275284 21.850971 -6.0085402 -0.31617737 0.90069163 0.29797065
-12.710543 15.988816 15.934389 0.019787645 0.95101714 0.30850422
-4.164957 16.009295 15.190199 0.03307033 0.95000166 0.3104887
-23.883692 17.566929 11.597599 0.011524239 0.95398331 0.29963842
21.447113 11.331199 25.590548 0.040278096 0.96953911 0.24160206
-69.157471 20.381569 -2.6540046 -0.34530535 0.88287491 0.3182705
-71.666367 20.363777 -5.6013021 -0.39354777 0.86840063 0.30166271
-65.088531 21.05113 -0.90925711 -0.30136582 0.89429992 0.33076632
-26.404848 16.434332 15.391745 0.018569257 0.95616722 0.29223174
2.7646723 12.796128 24.057627 0.045645259 0.95105058 0.3056457
29.422827 12.601326 34.807373 0.1320228 0.90494907 0.40452081
-64.297256 19.271053 4.3891616 -0.29206073 0.88862103 0.35362852
-41.157951 -47.600258 74.881416 -0.2651096 0.32280508 0.90857798
8.2677002 12.876261 22.964857 0.047944386 0.95330817 0.29816914
-66.28878 18.36834 5.2318907 -0.29096928 0.88744885 0.3574512
-29.912724 16.586491 15.143026 0.0070174923 0.95705575 0.28981882
-34.141933 15.870586 17.396177 0.037743028 0.9601081 0.27707011
7.157589 11.190084 28.271973 0.044983134 0.94985312 0.3094438
13.783455 10.879054 28.240847 0.02460343 0.96233088 0.27076563
-25.546272 15.237415 19.288788 0.021630343 0.95328361 0.30130133
-70.587219 18.787277 0.048114136 -0.36557847 0.86793053 0.33622754
-68.145653 18.631275 2.9279094 -0.32559133 0.87874728 0.34898925
23.735867 12.142941 37.270611 0.18474419 0.81041318 0.55596775
-30.33235 15.367037 19.102118 0.016076874 0.95620048 0.29227075
-20.669682 15.098639 19.255859 0.023632761 0.95231867 0.30418849
-52.172192 20.980522 15.516253 -0.4246054 0.76656348 0.48175788
-60.778912 18.333763 9.4047565 -0.31063685 0.86533749 0.39331374
-64.425163 17.311218 9.2337523 -0.27648705 0.88837254 0.36653656
-50.06628 16.946342 21.122065 -0.48182151 0.67550433 0.55815941
-49.413975 19.345207 20.134243 -0.38295877 0.76818979 0.51305652
2.3222141 11.153456 29.05727 0.039451104 0.95973557 0.27812082
-52.578781 18.962236 16.586233 -0.56136119 0.63134098 0.53505337
20.546732 11.31274 39.811096 0.25122088 0.62915224 0.73556477
-7.0404968 11.124476 30.566816 0.039603729 0.96700549 0.25165847
-3.6817367 10.830756 30.991447 0.052721683 0.96394598 0.26082265
16.512295 11.468757 40.543564 0.12827273 0.80108416 0.58464533
-70.187576 16.140503 6.8294835 -0.37070939 0.8510977 0.37176248
-67.100037 16.485678 9.0229559 -0.34024119 0.85719359 0.38659421
16.452358 10.289536 42.172489 0.21718785 0.58544248 0.78108037
-64.351494 15.918331 12.543989 -0.30067414 0.86171275 0.40871283
12.050638 10.194987 43.215801 0.16412631 0.57881427 0.79877198
-59.90266 15.972919 15.225904 -0.28227538 0.86736721 0.40987161
-54.380245 16.386671 18.298145 -0.3777934 0.79801041 0.46952268
-47.551102 18.337948 22.690598 -0.53145236 0.59563637 0.60230869
-61.797348 14.078669 17.959803 -0.29497585 0.85251981 0.43150812
30.509861 4.3366356 43.490231 0.18673864 0.81800812 0.54405087
-55.216614 14.698465 20.775883 -0.26805004 0.84354931 0.46537495
-54.027355 13.580781 23.587427 -0.28933552 0.83699459 0.46446198
-44.387566 17.621435 25.963348 -0.38231459 0.71875811 0.58070838
7.8504119 10.45067 43.823196 0.10650738 0.62382668 0.77427155
12.218295 7.9281201 44.078388 0.14760004 0.5695768 0.80857688
-37.761532 15.293676 32.241478 -0.35080355 0.66033852 0.66399544
-33.638813 14.430933 35.179455 -0.27511764 0.69493574 0.66436046
-4.4388714 10.45186 44.732643 -0.016700381 0.68430966 0.72900027
-40.279503 12.324464 32.829849 -0.35345075 0.67246938 0.65027499
-6.0840583 11.557232 42.871281 0.0031740777 0.84907126 0.52826887
-0.76603836 10.412769 44.692917 0.042302646 0.59323436 0.80391759
-46.797657 14.369372 26.70586 -0.46538907 0.63844728 0.61302382
-43.982231 13.06596 29.906672 -0.37658781 0.68653005 0.62197918
-65.866417 13.077024 16.999491 -0.33609122 0.83358413 0.43838352
-59.801258 12.283923 22.810028 -0.28623083 0.8465814 0.44874486
14.902744 4.98522 46.630756 0.13695179 0.76426792 0.63018954
-64.204964 11.511036 21.104322 -0.34442922 0.8156774 0.46479988
-37.259697 11.44654 35.235332 -0.31737152 0.66591173 0.67515689
-29.848669 13.911804 37.267509 -0.1865603 0.77131498 0.60849679
-25.737309 12.953163 39.620789 -0.12736376 0.81170928 0.57000577
-10.358887 10.759038 44.139156 -0.053994261 0.60511053 0.79430836
-22.78343 12.471182 40.72929 -0.22297308 0.58833063 0.77727085
-28.453897 11.958259 38.731491 -0.31933367 0.48422813 0.81458521
-50.747253 13.095922 26.243073 -0.27541149 0.81756186 0.5057084
-31.946735 12.109713 37.151394 -0.33298594 0.55333501 0.76350552
12.399354 3.1594119 49.761314 0.099054657 0.81537837 0.57039136
-92.958511 4.2452836 -10.922693 -0.74603432 0.6196025 0.24397857
-53.550861 10.797037 29.2097 -0.25453153 0.83963054 0.47982737
-22.262152 8.9800234 42.711277 -0.1883522 0.60260516 0.77549368
-56.885544 32.655701 -30.180845 -0.61757994 0.7864967 0.0042188703
-43.420067 10.366326 34.26136 -0.2133542 0.82566977 0.52225423
-26.958311 9.8570099 40.670647 -0.22959624 0.62347692 0.74737012
-35.146435 10.103849 37.746048 -0.21876566 0.76991743 0.59947366
-67.354019 9.6334219 21.864819 -0.40526143 0.77064955 0.49179515
-61.704437 10.408723 24.863819 -0.33658302 0.80810261 0.48340672
-31.422731 9.5229168 39.670635 -0.19564648 0.74650234 0.6359691
19.456758 0.74660766 51.608734 0.15822902 0.75188637 0.64002377
-41.210018 9.1958008 37.048332 -0.18878946 0.82741117 0.52891338
-62.590263 8.0019894 28.026154 -0.37726977 0.76815122 0.51731157
-45.045113 8.7041445 36.556767 -0.20302069 0.82773215 0.52310801
-25.932013 7.5476971 43.494186 -0.117047 0.79869711 0.5902397
-57.584557 10.915836 26.708918 -0.2945731 0.82581973 0.48088315
-95.012367 1.4581207 -10.021401 -0.75533295 0.60563385 0.25035912
-57.63953 7.6220217 31.9576 -0.32778463 0.78612787 0.52398497
-48.052227 9.6755505 33.807331 -0.22122794 0.83484012 0.50408351
-37.31583 8.2779207 39.871521 -0.16901609 0.82971787 0.53197926
17.583258 -1.093915 54.174412 0.14814436 0.7154873 0.68273801
-52.14167 8.2690449 34.079678 -0.27687654 0.80684853 0.5218572
-69.255844 7.7032037 23.069733 -0.48240322 0.71339214 0.50829011
-45.56105 6.8688383 39.096581 -0.23367439 0.79068166 0.56587875
-41.75404 7.3416996 39.884666 -0.19788106 0.81076986 0.55090404
-18.226772 3.9763789 49.898182 -0.050235804 0.80876011 0.58598924
-62.005764 4.3589373 33.485176 -0.40121514 0.71835756 0.56832111
-50.200508 6.9237576 37.030495 -0.26537335 0.78632402 0.55791706
-55.646225 6.169457 35.175034 -0.33483624 0.75496703 0.56383467
-38.728745 5.1448269 44.116032 -0.20545569 0.78034908 0.59062958
-28.717749 4.5709319 47.489246 -0.1125222 0.81349629 0.5705809
-32.849827 5.3831244 45.465523 -0.14968418 0.79568809 0.58692008
-69.949883 2.8687918 28.643639 -0.53310138 0.63339287 0.56090683
-59.385986 2.8672345 37.011505 -0.39826787 0.67772514 0.61811918
-46.006237 4.3806 42.259457 -0.2526601 0.75966322 0.59922838
-49.387131 5.0194759 39.909897 -0.2818886 0.74945807 0.599042
-38.138256 1.2303507 48.934177 -0.22525527 0.71860522 0.65792596
-97.940895 -3.4812069 -7.2202268 -0.75942832 0.59221268 0.26935622
-44.901886 2.6650555 44.759899 -0.27208772 0.71685809 0.64193672
-32.927933 2.7425478 48.830914 -0.17953917 0.75127685 0.63509744
-28.558985 2.5646138 50.166748 -0.15274362 0.751252 0.64209789
-65.485672 4.1281166 31.051418 -0.46784255 0.67154264 0.57459015
-39.797352 2.887363 46.48666 -0.22368236 0.73256123 0.64289993
21.687508 -7.6241722 59.083241 0.19460155 0.57519209 0.79453403
-51.839329 1.9634104 42.320442 -0.31757468 0.69435847 0.64576513
-111.69234 -13.567845 -31.991959 -0.85374385 0.50928998 0.1083753
-54.920341 4.1232576 38.283165 -0.33249354 0.72307616 0.60548228
-47.968163 -0.49688587 46.68502 -0.32769814 0.64584124 0.68956721
-29.800817 -1.129862 53.895931 -0.18296438 0.69106042 0.69925636
-63.088478 0.3521125 37.0438 -0.48568338 0.61641616 0.61979258
-25.840254 0.51157653 53.071705 -0.12230943 0.72747159 0.67514849
-55.041317 0.28732204 42.334251 -0.38330248 0.65062559 0.6555652
-35.427467 -0.54592872 51.609226 -0.21058182 0.69413161 0.68835789
-69.32515 0.35765597 31.73918 -0.5372147 0.59117395 0.60159266
-66.02636 -3.0865817 37.740936 -0.53106076 0.54736942 0.64680845
-34.524151 -3.5677662 54.69455 -0.24119736 0.61700273 0.7490871
-70.293037 -2.8744142 33.900269 -0.56720936 0.54121464 0.62077391
-52.609688 -2.2264435 45.992447 -0.37026379 0.60692203 0.70324272
-40.941204 -2.4479995 51.538754 -0.28029132 0.63125986 0.72315127
-60.021114 -1.7036425 41.135845 -0.45263693 0.6015228 0.65824795
-44.852123 -0.97701925 48.623135 -0.30377224 0.6477316 0.69868898
-62.378368 -4.621017 41.837147 -0.4984751 0.53537482 0.68183309
-57.688553 -2.8251214 43.596836 -0.43394133 0.56751037 0.6997335
-31.783607 -7.4702268 58.520256 -0.23546758 0.54254574 0.80634922
-41.134857 -5.4769988 53.890503 -0.30221269 0.56436527 0.76821822
-60.965923 -7.3020716 44.840397 -0.48484275 0.51581717 0.70630038
21.111828 -16.374588 64.281944 0.20832661 0.43951377 0.87374347
-65.691071 -5.8589602 40.176296 -0.53033006 0.5108996 0.67655861
-36.743885 -7.9753208 57.297001 -0.28345233 0.53128052 0.79837072
-111.72018 -20.680349 -11.127753 -0.9749406 0.16927777 0.14434648
-45.898655 -8.952775 54.28199 -0.34470856 0.51826859 0.78267086
-51.755146 -5.9743333 49.411648 -0.368976 0.56961691 0.73443407
-73.079063 -9.8098822 37.08725 -0.57156968 0.50813949 0.64428431
-56.300892 -5.9779325 46.849171 -0.43398249 0.52480745 0.73228168
16.394756 -17.642488 65.894737 0.17555375 0.43960407 0.88086838
-63.948067 -10.008226 44.658981 -0.51896799 0.49551514 0.69651777
-67.897926 -8.7186346 40.547752 -0.54585832 0.50639355 0.66753584
-53.805935 -8.3997841 49.869564 -0.41257232 0.49816942 0.76263446
-47.741982 -6.3016958 51.602737 -0.35369131 0.55669916 0.75165725
-41.787689 -9.717536 56.427471 -0.31214908 0.50683731 0.80354148
-66.571144 -12.233844 44.179913 -0.53080583 0.48994648 0.69151837
-49.633808 -10.332718 53.306995 -0.39424637 0.50368416 0.768682
-72.973549 -14.939496 40.984283 -0.55459261 0.4799931 0.67973059
-44.042591 -12.364428 57.211159 -0.32193825 0.48483118 0.81320018
-78.601204 -13.229081 34.638573 -0.61388713 0.49906191 0.61162066
-60.903137 -10.496057 47.048309 -0.47346517 0.48940429 0.73233473
-58.312473 -10.621846 48.71706 -0.44548762 0.49620038 0.74520195
-46.969437 -12.02642 55.734856 -0.36977902 0.50312066 0.78111011
-55.858761 -10.951847 50.416378 -0.43147197 0.49098095 0.75681543
-39.746693 -14.685222 60.192154 -0.30176565 0.46843588 0.83036458
-35.905033 -11.961535 59.990185 -0.26740044 0.48648477 0.83176291
-52.847557 -11.878641 52.618 -0.41004506 0.49430433 0.76650262
22.565296 -26.265741 68.47876 0.22652513 0.38610747 0.8942076
-60.319019 -13.639352 49.50663 -0.46221 0.48464498 0.74261779
-70.283669 -12.920221 41.767616 -0.55080295 0.48725879 0.67763919
-31.701048 -12.372138 61.482098 -0.23004994 0.4759526 0.84884989
-50.045464 -13.428924 55.116802 -0.40680698 0.47966295 0.77745193
-47.652691 -14.064102 56.748909 -0.36011028 0.46088976 0.81111103
-69.527512 -18.231558 45.942894 -0.54121882 0.46588078 0.70002669
-60.382755 -16.086498 51.054131 -0.47486332 0.4725433 0.74243367
-54.146809 -14.416097 53.566063 -0.4159514 0.46858448 0.77936709
-47.458721 -16.464437 58.066387 -0.35589048 0.44370082 0.82247889
-67.730789 -15.449288 45.573681 -0.53189516 0.46865174 0.70530355
-63.967636 -14.459182 47.585434 -0.50257397 0.47483182 0.72246397
-35.2864 -15.325563 62.031937 -0.25804293 0.44841081 0.85576963
-56.738342 -14.990833 52.483864 -0.43054825 0.47687611 0.76630116
-43.419937 -16.657953 59.852306 -0.32879877 0.45060787 0.82996619
-75.990715 -14.77345 38.345249 -0.58589792 0.48249951 0.65108973
-64.779541 -16.979162 48.62875 -0.51189703 0.46277314 0.72374201
-51.116978 -16.9981 56.65731 -0.40717474 0.45639804 0.79114449
-72.603302 -20.274191 44.965405 -0.54772532 0.46630159 0.69466519
-38.44133 -19.246828 62.999069 -0.27966246 0.43738356 0.85468388
-54.759159 -16.8811 54.605434 -0.41686034 0.45686534 0.78581268
-58.879139 -17.55295 52.838562 -0.43942517 0.45505854 0.77448523
-57.118214 -19.493578 54.929737 -0.42668882 0.45343742 0.78251588
-33.25547 -21.143291 65.635506 -0.24223131 0.42802706 0.87069911
-75.574425 -19.838062 42.253445 -0.56951457 0.46623006 0.67696583
-62.626228 -18.191273 50.91724 -0.49040616 0.45259279 0.74475604
-53.981632 -19.846283 56.770729 -0.41991776 0.44346467 0.79183841
-45.345665 -18.962608 60.305538 -0.33695906 0.44353318 0.83050394
-48.831104 -18.347441 58.541939 -0.35236356 0.45119733 0.81991512
-61.125908 -19.836142 52.810387 -0.46143299 0.45180827 0.76351082
-66.273643 -19.329058 49.0896 -0.51127297 0.46520314 0.72262436
-64.369278 -21.056198 51.419769 -0.49579865 0.45445961 0.74003381
-68.525055 -21.116251 48.686096 -0.52559906 0.4537895 0.71959764
-51.049389 -20.829571 58.900299 -0.39881185 0.44132936 0.80385166
-41.482716 -20.327297 62.56176 -0.30808839 0.43517733 0.84599185
-38.177723 -23.287544 65.134621 -0.27596471 0.42165217 0.86374354
-72.425575 -23.476227 47.146721 -0.54230535 0.45196265 0.70826167
-58.625679 -21.837906 55.438656 -0.42276946 0.44209307 0.79108763
-67.205597 -23.288471 50.882236 -0.52080727 0.44342116 0.72947752
-45.770084 -22.499441 62.001617 -0.32678866 0.44005719 0.8363964
-97.716774 -25.880276 23.049616 -0.70410877 0.47615176 0.52679241
-52.162281 -23.099154 59.509106 -0.41404873 0.42277375 0.80611783
-48.787838 -23.445976 61.318108 -0.36234683 0.42565042 0.82917219
-77.01886 -24.736843 44.398792 -0.56805718 0.45211196 0.68768144
-82.993889 -23.687685 38.250412 -0.61768097 0.45577794 0.6408875
-58.105885 -24.657959 57.240166 -0.41325715 0.43809348 0.79830605
-34.172482 -26.699266 67.958366 -0.24178897 0.39513338 0.88623238
-63.844505 -23.111147 53.111565 -0.4944663 0.44854024 0.74452317
-61.318867 -22.134701 54.141495 -0.45055193 0.4525767 0.76953048
-54.801369 -24.074146 58.627102 -0.41743955 0.4284766 0.80134386
19.641293 -38.024147 73.91993 0.19395636 0.35428295 0.91480297
-38.025478 -27.212751 67.075668 -0.27551895 0.39630678 0.87580258
-52.679729 -26.4025 60.960186 -0.39782098 0.4159531 0.81775385
-62.170227 -26.282042 56.004375 -0.45527667 0.43026093 0.77948612
-42.332958 -25.279493 64.703827 -0.30052286 0.40926817 0.86150193
-82.233009 -28.941509 42.631935 -0.59569204 0.45387614 0.662682
-44.906139 -25.145227 63.757107 -0.32790002 0.4130238 0.84964281
-74.402367 -26.441641 47.552353 -0.54652613 0.44209591 0.71123856
-66.569016 -26.125631 53.058868 -0.50624841 0.43537563 0.74441963
-72.459457 -28.662172 50.250015 -0.53460634 0.42830372 0.72852737
-75.409042 -29.912661 48.932594 -0.54522681 0.42384648 0.72324401
-70.263573 -26.687046 50.741436 -0.53104907 0.44202456 0.7229116
-61.358089 -28.25626 57.404716 -0.44565573 0.41113067 0.79521233
-85.931877 -27.891016 38.332035 -0.62691784 0.46023059 0.62861896
-55.319347 -27.555267 60.19429 -0.40503106 0.42768562 0.80810571
-69.309158 -28.823246 52.761936 -0.52172196 0.42189604 0.74149179
-35.816963 -31.075066 69.365433 -0.24997605 0.37174258 0.89404672
-49.10041 -31.200735 64.855331 -0.35163233 0.39076853 0.85067898
-64.933693 -28.576324 55.55645 -0.47857773 0.41361275 0.77452427
-53.063969 -29.302221 62.257755 -0.38422865 0.4023554 0.83095038
-48.733822 -27.246916 63.179173 -0.36016101 0.4005354 0.84252912
-45.59137 -29.892414 65.668068 -0.31923828 0.38965917 0.86385912
-58.025974 -28.352203 59.34341 -0.41414773 0.41770694 0.80870426
-69.461227 -31.417963 54.000999 -0.51707798 0.4126769 0.74988538
-62.792255 -31.258413 58.227169 -0.45988259 0.40208414 0.79172999
-80.150558 -31.352135 46.028393 -0.5684908 0.43641758 0.69739372
-71.532578 -31.295858 52.536041 -0.53641027 0.40956879 0.73791426
-60.056698 -32.472103 60.355621 -0.4306148 0.4028725 0.80762905
-55.352745 -30.252373 61.57375 -0.39945143 0.40102509 0.8243891
-75.382912 -32.621586 50.434822 -0.53805918 0.41906768 0.73135114
-66.184639 -30.042881 55.469204 -0.5004279 0.41022897 0.76241988
-66.241997 -33.029312 57.087128 -0.48459518 0.41563386 0.76968569
-52.139572 -31.970554 63.906311 -0.3816233 0.3920978 0.83703226
-84.087822 -34.805588 44.901218 -0.59112853 0.43034238 0.68218219
-78.510475 -34.640259 49.291084 -0.54649299 0.4335525 0.7165038
-72.729424 -34.572067 53.381954 -0.52957714 0.4280307 0.73235089
-55.840412 -33.07523 62.687664 -0.39636853 0.39985946 0.82644081
-69.683022 -34.796635 55.816368 -0.5175482 0.43278062 0.73813605
-50.694897 -34.416691 65.683533 -0.35507888 0.38726401 0.85084987
-54.375977 -34.867718 64.240005 -0.38317323 0.39113697 0.83677369
-43.437511 -33.317291 67.934433 -0.29965922 0.37583029 0.87690133
-35.738152 -35.980747 71.387169 -0.24830005 0.37297904 0.89399874
-67.113014 -34.736855 57.474312 -0.46263123 0.40467718 0.78880203
-63.823898 -33.558788 58.650757 -0.45761418 0.39295653 0.7976054
-87.756561 -35.447773 42.166599 -0.62341917 0.42743331 0.65471315
-81.885689 -36.087654 47.572311 -0.56500524 0.43216988 0.70285004
-72.820999 -37.688828 55.318123 -0.51789695 0.44449314 0.7308957
-61.806679 -36.333729 61.304955 -0.43609041 0.40699095 0.80261052
-39.988522 -36.063896 70.219162 -0.26884207 0.37373847 0.88771814
-77.526337 -37.007977 51.452263 -0.53196943 0.43494099 0.72652245
-69.393677 -37.120991 57.308407 -0.47391757 0.42542717 0.77098233
-42.440945 -38.592762 70.508408 -0.28576905 0.37892589 0.88019949
-38.001293 -40.293606 72.571274 -0.2532073 0.37769791 0.89063483
-65.378448 -36.024506 59.04324 -0.45270699 0.4206264 0.78621238
-58.522594 -35.78204 62.734623 -0.40335095 0.39499411 0.82540148
-56.847881 -38.662052 64.873909 -0.38990316 0.39979938 0.82953966
-47.832409 -37.750984 68.332428 -0.3232891 0.38141084 0.86603111
-52.361511 -37.542099 66.367424 -0.3563318 0.39352006 0.84744883
-76.019402 -38.639603 53.518055 -0.53322107 0.43800271 0.72376019
-64.28051 -39.605968 61.701931 -0.42808807 0.42484897 0.79764909
-46.977505 -41.256924 70.123032 -0.30805251 0.39397308 0.86596119
-69.349724 -39.556702 58.7197 -0.47252002 0.44510427 0.76066232
-55.312389 -41.726997 67.108376 -0.3779234 0.41102841 0.82959598
-53.246983 -39.322605 66.945366 -0.34792259 0.40700629 0.84456843
-44.299511 -40.544621 70.75177 -0.28896356 0.38879374 0.87483686
-59.265461 -40.116306 64.407417 -0.40254077 0.41334081 0.81676823
50.536575 19.028851 8.4933662 -0.25141388 0.95410901 0.16268669
39.708347 14.767991 23.781033 -0.39574841 0.90211999 -0.17193858
37.229763 14.094343 26.036579 -0.33656332 0.92866701 -0.15589352
-68.392113 29.621284 -52.082104 -0.4774915 0.87666744 -0.058789048
-62.099735 22.385239 -1.3599514 -0.46231726 0.82565558 0.32335085
-57.283134 19.889093 9.5561457 -0.54658467 0.6979546 0.46271425
-67.771996 11.038198 19.134933 -0.41070336 0.78778809 0.45903447
-19.852566 34.5214 -48.767418 0.026616206 0.96990979 0.24200541
21.531015 28.995651 -34.484352 0.058834489 0.96497059 0.25567591
-37.940437 27.523996 -21.820175 0.010978183 0.96324152 0.2684125
-22.840321 27.985525 -23.58625 -0.0046301754 0.96629614 0.25739151
-45.754677 27.436769 -20.911072 0.087775767 0.95796955 0.27311134
-41.968971 27.559784 -21.593534 0.022180095 0.96202183 0.27206999
-36.074753 24.831076 -12.27527 -0.0001519112 0.95943165 0.28194138
-22.605585 23.670624 -8.4165344 0.00038408439 0.95738751 0.2888059
-31.862747 23.225943 -6.9024291 0.0055898991 0.95800054 0.2867119
-38.477303 21.094879 0.43104437 0.011296918 0.95757639 0.28795797
-26.567215 21.573006 -1.4633712 0.00081278157 0.95817572 0.28617948
35.768242 16.570118 5.3884363 0.078171842 0.95227581 0.29505906
5.843823 13.884187 20.028023 0.053614374 0.95249563 0.29979593
4.7307558 11.898275 26.556982 0.047094595 0.94856328 0.31306541
36.641094 29.818415 -41.386856 -0.0081385011 0.94895869 0.31529543
40.130703 23.659439 -20.15723 0.082159594 0.96007848 0.26739311
44.669643 23.190628 -20.103895 0.024007311 0.96240246 0.27056459
18.070955 17.756943 5.8310223 0.059524111 0.95209223 0.2999621
-6.9869413 14.895153 18.840229 0.027594063 0.95060843 0.30916375
-18.894955 36.595516 -56.227123 0.095277496 0.90322071 0.41846687
-19.757561 35.835403 -53.920547 0.051362984 0.95434487 0.29425794
34.27396 19.206619 -2.8313558 0.077233173 0.95519024 0.28573883
21.863968 -3.6942155 55.739273 0.17728415 0.67272109 0.71834296
-31.445517 34.387043 -46.844837 0.096652515 0.94005817 0.3270303
-40.239689 33.694107 -41.640858 0.21640612 0.89663309 0.38628677
43.774025 16.761427 3.0715115 -0.082731798 0.96958405 0.23035245
23.116592 37.90778 -59.200317 -0.29164964 0.42470387 0.8570689
46.1012 24.447641 -24.141201 -0.14158037 0.93705934 0.31917822
-40.56411 -31.151041 67.975327 -0.2830947 0.38047019 0.8803975
-31.908846 -37.528027 73.074425 -0.21263061 0.37345812 0.90294927
-35.438244 7.0504227 42.339615 -0.15043174 0.8204146 0.55162513
-33.316612 -44.681274 75.594536 -0.20618095 0.36491191 0.90792549
29.025454 11.596299 36.502411 0.3403694 0.58692634 0.73461974
45.118832 31.907364 -40.721664 -0.60345757 0.56147569 0.56620145
-52.815704 22.717415 10.684639 0.02031938 0.95476556 0.29666469
-64.087685 29.305023 -29.804878 -0.30156776 0.93637848 0.17958893
-71.756554 27.878727 -41.338924 -0.46017954 0.88668263 0.045042109
-77.025345 24.335468 -33.87056 -0.54581064 0.83352226 0.085623488
0.44420794 36.993671 -60.228397 0.030684445 0.91372126 0.40518132
-29.427233 27.353979 -21.028233 0.0023705368 0.96264839 0.27074414
-2.6893296 26.936869 -21.404457 0.046218466 0.96751887 0.24853808
-2.3381641 26.397228 -19.108051 0.027445994 0.96546 0.25910178
-40.137844 16.851332 15.388032 0.13253365 0.96727341 0.21637218
-26.005413 12.816965 27.66394 0.11008967 0.98361117 0.14279164
-46.369724 35.827881 -40.433044 0.61839467 0.47210434 0.62825596
-52.618958 29.24844 -21.567259 0.4341678 0.84549534 0.3108632
-56.392414 26.740793 -2.7127898 0.32694933 0.90777576 0.26276881
-55.56538 25.980789 -0.65714556 0.41408634 0.88701761 0.20428459
-54.443211 25.168659 -3.0779366 0.62868339 0.76755017 0.12499548
-53.706074 24.131395 1.3873082 0.54093921 0.83360714 0.11173175
-42.215046 18.102289 24.4809 0.37209797 0.92812973 -0.010876746
-39.485607 16.312527 23.939276 0.42788833 0.89345235 -0.13658141
-26.56822 12.959846 31.639864 0.23764656 0.96672159 -0.094727218
60.82003 27.201006 -45.41169 0.3874118 0.91879582 0.075671561
49.245308 32.024357 -61.494682 0.32347766 0.94585246 -0.026933437
44.145321 33.396599 -67.589279 0.32511273 0.94097126 -0.094206028
22.907936 31.888412 -95.542557 0.24345329 0.84607875 -0.47421655
40.860657 12.115576 -114.56665 0.36398301 0.75853544 -0.5405001
-17.108883 40.449699 -72.880257 -0.048756998 0.99754173 -0.050331701
-10.552817 40.587551 -74.957954 -0.016767083 0.99841851 -0.053660229
-30.798645 20.950485 -113.63271 -0.19869155 0.80159867 -0.5638805
-18.556423 42.629822 -62.188065 0.17713399 0.77711809 0.60391319
-69.064949 12.988239 14.527521 -0.38972005 0.81499702 0.42883357
-75.33638 -6.9045811 32.515377 -0.58627903 0.51934367 0.62173867
5.8880482 39.379665 -63.509098 -0.052201819 0.55044544 0.83323747
-25.976131 33.542816 -44.215622 0.021344829 0.96900928 0.2461004
7.6752801 31.177561 -39.998966 0.052998465 0.9684462 0.24352232
-18.750025 28.821981 -26.642601 0.0021102556 0.967228 0.25390065
16.985832 28.163309 -30.159628 0.06569735 0.96879697 0.23898996
-19.888412 28.000135 -23.403965 -0.00078813289 0.9652096 0.26147634
-44.374565 23.77247 -8.5905895 0.020136187 0.95751375 0.28768373
-38.20945 17.472544 12.611677 0.033877578 0.96726894 0.25148162
-33.885227 17.104992 13.432985 0.019971307 0.95813555 0.28561762
10.523756 28.465195 -29.694786 0.068600357 0.96627277 0.24821538
-2.5657783 31.534542 -39.168491 0.055246256 0.96785295 0.24537419
-39.205803 16.955137 26.559624 0.40301439 0.90518135 -0.13500397
-47.97644 11.269099 30.980938 -0.22255333 0.84618837 0.48418519
46.450741 16.622885 13.485303 -0.44979048 0.89269012 -0.028159564
-66.669235 26.017063 -18.962519 -0.29550785 0.92878556 0.22367954
-63.850109 27.061251 -19.167038 -0.35916081 0.90444434 0.23018248
-108.6442 -19.503351 -26.650862 0.63382405 -0.7608304 -0.13929854
-106.87888 -15.891208 -34.131157 0.75925952 -0.64518416 -0.085219286
-108.97241 -20.459785 -23.125048 0.59703821 -0.76840425 -0.23043504
-107.5604 -19.788794 -20.455875 0.72674209 -0.66049725 -0.1886511
-105.12958 -13.512918 -37.268486 0.74693173 -0.66236049 -0.058066051
-107.40507 -18.278709 -25.065022 0.72359794 -0.67450786 -0.14644141
-109.57224 -22.91173 -17.429779 0.38860214 -0.87202692 -0.29758617
-103.01389 -11.172323 -37.15332 0.74985594 -0.65989542 -0.04747628
-106.12637 -15.499496 -30.851551 0.76151067 -0.63665122 -0.12155986
-106.23267 -16.907434 -25.131292 0.76242346 -0.62945592 -0.14998551
-108.12775 -22.263327 -14.854224 0.72059053 -0.64284372 -0.25981
28.320835 24.187223 -48.152599 -0.059041698 -0.96659625 -0.24941075
-104.89998 -13.969995 -32.035904 0.74351138 -0.66123384 -0.099803209
10.546781 2.4935892 -127.61591 -0.085230254 -0.8582536 0.5060994
-103.74825 -12.379626 -34.36499 0.75290191 -0.65262258 -0.084985025
-105.12234 -15.237862 -26.181633 0.75626177 -0.63802016 -0.14490789
14.73015 2.5900049 -126.56875 -0.14112738 -0.81499577 0.56201863
17.228977 2.4905851 -125.94988 -0.1521357 -0.83200538 0.53349948
11.790098 3.6781249 -125.76474 -0.1065625 -0.80141646 0.58853722
-101.06299 -8.9383459 -36.616257 0.75457883 -0.65437835 -0.048988033
-104.47873 -15.820469 -21.243536 0.75572324 -0.6315152 -0.17340995
15.345908 4.01577 -124.50072 -0.15883245 -0.79017019 0.59194863
5.6849732 6.1407299 -123.38087 -0.074213535 -0.79540884 0.60151231
-99.570755 -7.2553759 -37.314568 0.74116355 -0.67102426 -0.020074859
-102.14846 -10.682701 -32.381786 0.75782698 -0.64650983 -0.087881632
-103.74228 -13.39223 -27.509247 0.75413877 -0.64515048 -0.12270114
-103.53203 -12.596553 -30.719885 0.75943369 -0.64310062 -0.098397598
-103.34476 -14.228372 -22.132614 0.76349419 -0.62304485 -0.16997571
10.147338 6.0106254 -122.89135 -0.099769101 -0.80075204 0.59062868
16.044079 5.1228023 -122.7879 -0.16997017 -0.7913112 0.58731318
8.0868006 7.2652259 -121.52367 -0.095265642 -0.78652918 0.61016089
-104.21032 -28.415201 5.8712902 0.65267861 -0.65199184 -0.3858982
-102.29367 -11.613072 -27.801626 0.7592724 -0.63806248 -0.12799111
19.433701 3.8267663 -123.55267 -0.17815301 -0.79192823 0.58404714
13.80288 5.5074234 -122.89434 -0.12554771 -0.80052638 0.58599943
-98.163406 -5.6449518 -39.551899 0.74827659 -0.66318148 -0.016505951
-100.21718 -8.6377974 -31.193621 0.75732791 -0.64651114 -0.092075065
-101.8317 -13.128759 -19.064545 0.75730658 -0.62880164 -0.17633827
28.787601 1.8853951 -122.75234 -0.2329682 -0.80181396 0.55029106
-99.362724 -7.0794129 -35.067245 0.75169009 -0.65570784 -0.070776418
-102.3327 -12.611588 -23.525326 0.74695575 -0.64694691 -0.15335207
16.245382 5.7881846 -121.85999 -0.15712234 -0.79180455 0.59021872
11.981002 6.9087515 -121.30025 -0.12441952 -0.79387605 0.59521484
-103.47306 -15.62077 -17.651512 0.75945359 -0.61835444 -0.20215814
23.54281 3.9323645 -122.08064 -0.20367604 -0.78410071 0.58626121
19.853802 5.0697355 -121.74594 -0.18144841 -0.78815407 0.5881238
-97.779457 -5.4305935 -34.270947 0.75518167 -0.65371537 -0.048548266
-99.49572 -8.9511986 -24.526442 0.7553187 -0.64420438 -0.12039255
-100.93551 -10.348084 -25.582575 0.76875758 -0.62490267 -0.13604619
-104.08911 -27.130236 4.2564616 0.74177361 -0.55394024 -0.37805036
-101.54297 -29.953337 12.439802 0.65458125 -0.62006527 -0.43248391
10.910868 8.4991369 -119.45753 -0.11985561 -0.78581941 0.60673106
-96.804741 -4.0478745 -39.4688 0.72739464 -0.68621194 -0.0031905966
-101.01822 -9.748292 -30.324308 0.75415105 -0.64798087 -0.10666317
7.9560871 9.2149887 -119.12563 -0.095847733 -0.79521948 0.5986979
-102.84202 -25.553585 4.4371057 0.72880763 -0.56861621 -0.38146442
19.491344 6.206234 -120.31131 -0.18323685 -0.77796715 0.6009919
31.829576 3.700563 -118.90423 -0.26495004 -0.78080809 0.56580943
26.618263 5.2253556 -119.20752 -0.23490681 -0.78276747 0.57627589
14.533241 9.1160851 -117.88228 -0.13193992 -0.78581387 0.6042254
-101.10262 -24.556662 6.0059233 0.71648479 -0.57728887 -0.39164683
-101.71436 -26.89596 8.3242302 0.72610456 -0.5594722 -0.39970371
20.454672 7.4499269 -118.48141 -0.19261758 -0.77057278 0.60754919
10.867407 9.6151314 -117.96552 -0.11757273 -0.79084873 0.60061204
-95.870346 -3.1711292 -37.465702 0.73765236 -0.67513132 -0.0081702713
-96.622955 -3.9500823 -34.654324 0.74680924 -0.66414547 -0.034450222
-99.328438 -8.1108208 -27.829046 0.75797254 -0.64291525 -0.11017053
-97.584152 -6.3793459 -26.286293 0.75409573 -0.64640033 -0.11621599
-98.227478 -33.219738 21.299788 0.60727137 -0.62531602 -0.49010339
-95.219589 -2.5846715 -33.809467 0.74222213 -0.66817045 -0.051522262
9.2390938 10.651571 -116.8802 -0.1004159 -0.79610932 0.59676343
-94.247169 -1.1512716 -37.708103 0.74946553 -0.66199136 -0.00829711
-96.808914 -4.4875798 -32.103394 0.75535524 -0.64979345 -0.084893174
-98.691399 -6.8469205 -31.346714 0.7545976 -0.64895481 -0.097160749
-99.678406 -9.7091646 -22.076328 0.77389079 -0.61096931 -0.16676202
16.906305 7.6001019 -119.3165 -0.15428743 -0.78619343 0.59841073
15.595021 10.203364 -116.19456 -0.16278382 -0.79097342 0.58979863
